# .PCD v0.7 - Point Cloud Data file format
VERSION 0.7
FIELDS x y z normal_x normal_y normal_z curvature
SIZE 4 4 4 4 4 4 4
TYPE F F F F F F F
COUNT 1 1 1 1 1 1 1
WIDTH 215
HEIGHT 1
VIEWPOINT 0 0 0 1 0 0 0
POINTS 215
DATA ascii
20.784 8.7069998 0.722 -0.24931829 -0.53858006 0.32658434 0.67741078
20.628 8.717 0.71799999 -0.35464168 -0.42959663 0.29392672 0.62985468
20.690001 8.8210001 0.72100002 -0.14850283 -0.71042591 0.3515442 0.80643743
21.077 9.2609997 0.73299998 0.53452897 -0.70596105 -0.23234811 0.91547137
20.905001 9.2639999 0.72899997 0.49072111 -0.74410355 -0.18701735 0.91075391
20.966999 9.3710003 0.73100001 0.56260753 -0.64603215 -0.12437116 0.86565173
21.124001 9.5200005 0.736 0.59412509 -0.52681816 -0.093502864 0.79954034
21.106001 9.592 0.736 0.59490401 -0.5168466 -0.090305924 0.79321897
21.094 9.6669998 0.73699999 0.59834921 -0.48617071 -0.1047677 0.77804887
21.061001 9.6920004 0.736 0.59924132 -0.48697364 -0.10205732 0.77887684
20.966999 9.7279997 0.73500001 0.59924132 -0.48697364 -0.10205732 0.77887684
20.541 8.5550003 0.546 0.44635499 -0.74827558 -0.060236357 0.87337136
20.534 8.6280003 0.54699999 0.42840523 -0.77728885 -0.058678642 0.88946736
21.089001 9.2119999 0.55800003 0.53648466 -0.69759184 -0.088546358 0.88447195
20.934999 9.224 0.55599999 0.46881515 -0.78289092 -0.18269685 0.93063635
21.073999 9.4429998 0.55900002 0.58698827 -0.58911008 -0.15269409 0.84553027
21.079 9.5249996 0.56 0.59203935 -0.5698365 -0.17068343 0.83925986
21.076 9.6040001 0.56 0.60227621 -0.50574279 -0.17387265 0.80544651
21.070999 9.6820002 0.56 0.60319132 -0.49489602 -0.1651634 0.79752165
21.115999 9.7419996 0.56099999 0.60424936 -0.44413725 -0.17431627 0.76990998
21.091 9.8109999 0.56199998 0.60370761 -0.43081763 -0.16769174 0.76038623
20.410999 8.3190002 0.43000001 0.36541167 -0.17384267 0.10872874 0.41900942
20.368 8.3760004 0.43000001 0.47591794 -0.56281418 0.12135088 0.74698305
20.517 8.5129995 0.43200001 0.35805205 -0.14258435 0.052701466 0.38898459
20.525 8.592 0.43200001 0.51150358 -0.55821455 -0.043926708 0.75839895
21.018 9.2290001 0.43900001 0.54143673 -0.70143169 -0.18536629 0.90527391
20.841 9.2290001 0.43799999 0.45488 -0.79385722 -0.14437489 0.92626625
20.906 9.3369999 0.43900001 0.52249444 -0.70183772 -0.17192972 0.89170426
21.094 9.5010004 0.44100001 0.59648126 -0.54775894 -0.17664044 0.82887369
21.077 9.533 0.44100001 0.59648126 -0.54775894 -0.17664044 0.82887369
21.087 9.618 0.44100001 0.59794676 -0.53941596 -0.16313377 0.82165843
21.108 9.7069998 0.442 0.59502542 -0.54715514 -0.12871951 0.81853694
21.084 9.7770004 0.442 0.59502542 -0.54715514 -0.12871951 0.81853694
20.572001 8.2889996 0.27700001 0.26900169 -0.065923244 -0.0044263508 0.27699706
20.441999 8.3120003 0.27599999 0.48785236 -0.36230952 0.019777523 0.60799611
20.447001 8.3520002 0.27599999 0.49352151 -0.41356462 0.0065861344 0.64392745
20.49 8.4440002 0.27700001 0.49969515 -0.40166348 0.0072241314 0.64115596
20.507 8.5270004 0.27700001 0.48843521 -0.38663876 0.012955314 0.62307811
20.493 8.5959997 0.27700001 0.490096 -0.40546393 0.034159347 0.63699448
21.049999 9.1809998 0.27900001 0.49762312 -0.76722628 -0.14859177 0.92646879
21.052 9.4189997 0.28 0.57413507 -0.58740956 -0.28244928 0.86859578
21.049999 9.4969997 0.28 0.58277822 -0.5502755 -0.28231856 0.84978664
21.031 9.5679998 0.28 0.56210846 -0.50283897 -0.36535519 0.83803183
21.077999 9.6300001 0.28 0.56967306 -0.64136267 -0.15053517 0.87093878
21.056 9.6999998 0.28 0.58749574 -0.57945317 -0.12194379 0.83413881
21.062 9.783 0.28 0.58042485 -0.6002931 -0.10946947 0.84215701
20.569 8.3360004 0.17200001 0.25508034 -0.060548842 0.022248784 0.26311052
20.545 8.4020004 0.17200001 0.34995618 -0.13631392 0.028744176 0.37666568
20.554001 8.4429998 0.17200001 0.44140667 -0.250117 0.020837404 0.50777215
20.556999 8.5200005 0.17200001 0.46200758 -0.28653347 0.0032962617 0.54365736
20.573999 8.6029997 0.17200001 0.48952216 -0.36589432 -0.073371023 0.6155436
21.098 9.2550001 0.171 0.54592663 -0.69374371 -0.1669862 0.8984434
20.917 9.2530003 0.171 -0.27303538 -0.14379627 -0.012288481 0.30883119
20.884001 9.3170004 0.171 0.53178024 -0.61716056 -0.29749238 0.86728257
21.094999 9.5710001 0.171 0.56623054 -0.59863901 -0.30019128 0.87698376
21.351 9.809 0.17 0.4109191 -0.80854732 0.0097643286 0.90702736
21.093 9.7709999 0.17 0.57095689 -0.61589098 -0.080516897 0.84368026
20.466 8.3129997 0.032000002 0.43536896 -0.24811196 -0.043170612 0.50296062
20.49 8.3970003 0.030999999 0.44178405 -0.25925064 -0.03744559 0.51360124
20.497999 8.4759998 0.030999999 0.4368977 -0.26045361 -0.047216371 0.51082784
20.518 8.5220003 0.030999999 0.46382597 -0.30486146 -0.024201315 0.55557245
20.514999 8.5959997 0.030999999 0.48030642 -0.37058133 -0.022402415 0.60706395
21.065001 9.2180004 0.025 0.0014402047 0.021694779 -0.2503778 0.25132009
20.948 9.2060003 0.026000001 0.28003344 -0.008962661 -0.15821864 0.3217642
20.780001 9.21 0.027000001 0.43254006 -0.14815497 -0.11560974 0.47159985
21.073999 9.4189997 0.024 0.50180572 -0.27189404 -0.4078145 0.70146137
20.871 9.408 0.025 0.53333807 -0.35980231 -0.31157169 0.71483153
20.763 9.4379997 0.026000001 0.52182782 -0.45646021 -0.30276871 0.75652438
20.766001 9.5179996 0.026000001 0.48345202 -0.65250641 -0.28693253 0.86129016
20.749001 9.5889997 0.026000001 0.4997794 -0.57815021 -0.29700726 0.8199088
20.549999 8.2930002 -0.105 0.32389355 -0.11331433 0.026879612 0.34419423
20.516001 8.3540001 -0.105 0.37688276 -0.16809523 -0.0025318712 0.41267788
20.493999 8.4200001 -0.105 0.42157033 -0.23579055 -0.0085751023 0.48310688
20.514999 8.5039997 -0.106 0.44273743 -0.27155101 -0.032481182 0.52039546
20.516001 8.5799999 -0.106 0.49512911 -0.45264062 -0.039264403 0.67199558
21.031 9.2270002 -0.116 0.32138163 -0.013365179 -0.12781672 0.34612411
20.813999 9.2480001 -0.114 0.47437578 -0.18214437 -0.047443453 0.51035267
21.084 9.448 -0.118 0.47595391 -0.15529668 -0.027898848 0.5014255
20.774 9.3870001 -0.114 0.48826528 -0.21967956 -0.10783195 0.54615915
20.761999 9.4610004 -0.114 0.51049793 -0.26181796 -0.038341697 0.57500166
20.77 9.5439997 -0.115 0.50450414 -0.25683564 0.019304998 0.56644654
20.750999 9.6140003 -0.115 0.51032782 -0.29063076 -0.024429709 0.58779037
20.506001 8.2910004 -0.259 0.40162909 -0.19719765 -0.037263792 0.44897822
20.532 8.3769999 -0.25999999 0.36530501 -0.15601724 -0.063393176 0.40225342
20.537001 8.4540005 -0.26100001 0.43066555 -0.2501685 -0.01713383 0.49834794
20.540001 8.5310001 -0.26100001 0.43993777 -0.2684173 -0.0062648617 0.51539534
20.489 8.585 -0.26100001 0.49515051 -0.46395522 -0.0097165853 0.67861837
20.983999 9.2209997 -0.27599999 0.25991845 0.0063899457 -0.13688348 0.29382908
20.809 9.2220001 -0.27200001 0.40183029 -0.10662889 -0.11870734 0.43235254
21.056 9.3710003 -0.278 0.56439769 -0.36515391 -0.0089225322 0.67228103
20.856001 9.3610001 -0.27399999 0.51592499 -0.2403599 -0.0056786835 0.56919569
20.798 9.4139996 -0.27399999 0.49944848 -0.38548359 0.19274783 0.65969545
20.790001 9.4890003 -0.27399999 0.47635338 -0.59810621 0.22398823 0.79675233
20.799999 9.5719995 -0.27500001 0.45789659 -0.61094725 0.23451617 0.79870123
20.799 9.651 -0.27599999 0.40785381 -0.40003204 0.26446623 0.62953377
20.666 8.3000002 -0.37599999 0.24703845 -0.046432883 -0.033005677 0.25352198
20.509001 8.3120003 -0.37200001 0.38780957 -0.18097606 0.0057872897 0.42799777
20.545 8.4020004 -0.37400001 0.39768487 -0.19995573 -0.016060896 0.44541386
20.528 8.4700003 -0.37400001 0.43190792 -0.251661 -0.026834995 0.50059748
20.538 8.5500002 -0.375 0.44384104 -0.2749764 -0.014851999 0.52232891
20.558001 8.5959997 -0.37599999 0.500974 -0.4241223 -0.031786084 0.65716439
21.105 9.2180004 -0.396 0.45280159 -0.8215915 -0.14546105 0.94931597
20.981001 9.243 -0.39300001 0.41794726 -0.70181239 0.15502504 0.83141643
20.82 9.2110004 -0.389 0.1275581 -0.04222092 -0.40123945 0.42313918
21.063 9.3979998 -0.39700001 0.3290005 -0.53735918 0.2913174 0.69416285
21.129999 9.507 -0.40000001 0.33303341 -0.48999605 0.27492225 0.65313828
21.122 9.5839996 -0.40000001 0.33030406 -0.45263046 0.27735597 0.62522107
21.132 9.6680002 -0.40099999 0.39303294 -0.37554446 0.28853697 0.61543649
21.127001 9.7460003 -0.40200001 0.3215099 -0.55096698 0.3361879 0.72107941
21.083 9.8070002 -0.40200001 0.31956044 -0.58492571 0.33006513 0.74377412
20.51 8.257 -0.50300002 0.36489412 -0.15630767 -0.030033987 0.39809778
20.518999 8.3360004 -0.50400001 0.3739126 -0.16507813 -0.01408188 0.40897399
20.516001 8.4099998 -0.505 0.4276123 -0.23714077 0.021065811 0.48941985
20.521 8.4870005 -0.50599998 0.43126366 -0.25069627 -0.023909118 0.49940825
20.518999 8.5620003 -0.50700003 0.49262038 -0.45723453 -0.011335293 0.67221034
20.858999 9.2080002 -0.52499998 0.1430129 -0.093991846 -0.45492443 0.48604876
20.847 9.2799997 -0.52600002 0.16857424 -0.16158402 -0.4427664 0.50056845
21.1 9.4329996 -0.53500003 0.24779712 -0.51744401 0.32608226 0.65991014
20.438 9.2150002 -0.51300001 0.42475584 -0.23959458 -0.15006289 0.51023716
20.431 9.2889996 -0.514 0.43253168 -0.24682099 -0.13742915 0.51661497
20.434 9.368 -0.51499999 0.43451414 -0.25335902 -0.1448279 0.52341998
20.427999 9.4429998 -0.51599997 0.43491128 -0.27014995 -0.17510608 0.54110163
20.673 8.3120003 -0.65499997 0.28053784 -0.058370471 -0.10703233 0.30588317
20.528 8.2910004 -0.64899999 0.41974086 -0.21122059 0.0006428007 0.46989036
20.556 8.3780003 -0.65200001 0.42743701 -0.23029909 -0.052875035 0.48840129
20.561001 8.4549999 -0.653 0.44539055 -0.26866096 -0.082667097 0.52667385
20.562 8.5310001 -0.65399998 0.4945581 -0.35863402 -0.11023196 0.62077141
20.549 8.6020002 -0.65499997 0.51554263 -0.51124376 -0.087278731 0.73128104
20.66 8.9940004 -0.66500002 0.29771572 -0.29136541 -0.46296296 0.62278658
20.562 9.0279999 -0.662 0.24105582 -0.20363036 -0.39322639 0.5041827
20.558001 9.1029997 -0.66299999 0.25811815 -0.23421368 -0.40981087 0.53798324
20.569 9.1859999 -0.66399997 0.2920393 -0.23521921 -0.38201776 0.5353061
20.533001 9.2080002 -0.66299999 0.28957471 -0.234797 -0.38669258 0.5371353
20.410999 9.2309999 -0.66000003 0.43422735 -0.24403417 -0.17431591 0.52772349
20.403999 9.3050003 -0.66000003 0.43436527 -0.25171092 -0.14168094 0.5216369
20.400999 9.3809996 -0.662 0.43253115 -0.24682119 -0.13742657 0.51661396
20.389999 9.4540005 -0.662 0.42765105 -0.23854709 -0.15201214 0.51273561
20.743 8.2609997 -0.78899997 0.22442672 -0.0081015527 -0.1613083 0.27650201
20.565001 8.2659998 -0.78200001 0.33945987 -0.11168417 -0.080481142 0.36631075
20.513 8.2819996 -0.77999997 0.31832463 -0.11264884 -0.063079149 0.34351027
20.539 8.368 -0.78299999 0.32467788 -0.11796257 -0.069689438 0.35240248
20.542 8.4440002 -0.78399998 0.41597125 -0.22330037 -0.099497899 0.4824883
20.534 8.5159998 -0.78500003 0.43085808 -0.23126301 -0.15081194 0.51172793
20.631001 8.632 -0.79100001 0.52119577 -0.48957443 -0.21101633 0.74555755
20.573999 8.9530001 -0.79400003 0.3385514 -0.40449739 -0.44561258 0.69051123
20.544001 9.0159998 -0.79400003 0.30933377 -0.30558431 -0.41707921 0.60251492
20.542999 9.0930004 -0.796 0.31249115 -0.27967089 -0.39939049 0.57911938
20.551001 9.1739998 -0.79699999 0.39709944 -0.26707691 -0.28810164 0.55858803
20.415001 9.1899996 -0.792 0.32552236 -0.27327394 -0.38007835 0.57017803
20.34 9.2340002 -0.79000002 0.32927322 -0.27847478 -0.35210371 0.55672801
20.346001 9.2749996 -0.79100001 0.32927322 -0.27847478 -0.35210371 0.55672801
20.353001 9.3549995 -0.79299998 0.43029353 -0.24331322 -0.15084504 0.51682502
20.337999 9.4259996 -0.79299998 0.42730743 -0.23367625 -0.14707923 0.50875193
20.681999 8.2510004 -0.91500002 0.23995143 -0.028058857 -0.094770335 0.25950992
20.490999 8.2489996 -0.90600002 0.29425395 -0.083919585 0.011848696 0.30621606
20.497999 8.3269997 -0.90700001 0.32613975 -0.12760556 -0.086186402 0.36066383
20.507 8.4060001 -0.90899998 0.31244761 -0.11760661 -0.090207346 0.34582102
20.533001 8.4540005 -0.91100001 0.31543937 -0.12006789 -0.090461552 0.34943038
20.518999 8.5240002 -0.912 0.37166986 -0.16082039 -0.093976587 0.41573223
20.49 8.9300003 -0.91900003 0.3551296 -0.36331904 -0.39965147 0.64640468
20.320999 8.9320002 -0.91100001 -0.17255794 -0.68717432 0.47848022 0.85494334
20.190001 8.9510002 -0.90499997 -0.093865417 -0.74753559 0.51625854 0.91331434
19.820999 9.0109997 -0.88999999 0.21014827 -0.004567802 0.15503688 0.26118881
19.788 9.0710001 -0.88999999 0.24550223 -0.020118356 0.17617097 0.30284041
19.823999 9.125 -0.89200002 0.24550223 -0.020118356 0.17617097 0.30284041
20.586 8.2349997 -1.051 0.23671171 -0.042415649 -0.07669796 0.25241652
20.473 8.2639999 -1.045 0.26506034 -0.069058597 -0.013490848 0.27424091
20.495001 8.3479996 -1.048 0.2474613 -0.054586262 0.0046286359 0.25345254
20.507999 8.4280005 -1.051 0.29060078 -0.10075256 -0.072661363 0.31603727
20.392 8.4560003 -1.045 0.32501632 -0.1636447 -0.10146336 0.3777698
20.280001 8.4469995 -1.039 0.35236946 -0.19667709 -0.10481109 0.41693103
20.254999 8.5109997 -1.039 0.33524615 -0.20629939 -0.13894609 0.41743913
20.232 8.5769997 -1.04 0.33177918 -0.27597633 -0.20269483 0.4767867
20.183001 8.6309996 -1.038 0.3153764 -0.28262115 -0.21709697 0.47588661
20.148001 8.691 -1.038 0.28933373 -0.2801111 -0.20923544 0.45382342
20.117001 8.7530003 -1.038 0.21729463 -0.26585048 -0.24627547 0.42254591
20.195 8.8240004 -1.043 -0.2007184 -0.67110068 0.52732724 0.87677705
20.267 8.9320002 -1.049 -0.11921948 -0.71350276 0.50927573 0.8846814
20.106001 8.9359999 -1.041 0.14667402 -0.20671898 -0.27631623 0.37496224
19.931999 8.934 -1.0319999 0.21776141 -0.12462816 -0.12542744 0.28050715
19.796 8.948 -1.025 0.33066112 -0.076562166 0.13975248 0.36705491
19.774 9.0129995 -1.026 0.24550223 -0.020118356 0.17617097 0.30284041
19.774 9.0880003 -1.028 0.24550223 -0.020118356 0.17617097 0.30284041
19.784 9.1300001 -1.029 0.24550223 -0.020118356 0.17617097 0.30284041
20.535 8.493 -1.1720001 0.27557573 -0.075997293 -0.099278778 0.30261171
20.292999 8.467 -1.158 0.32252625 -0.20003009 -0.14739087 0.40713546
20.228001 8.5139999 -1.155 0.28828281 -0.19184479 -0.16935425 0.38547668
20.195 8.5760002 -1.155 0.27389166 -0.24697508 -0.2249922 0.4320125
20.176001 8.6049995 -1.154 0.29249457 -0.31371176 -0.24763756 0.49527013
20.143999 8.6660004 -1.154 0.30804509 -0.33193851 -0.24376459 0.51429188
20.111 8.7270002 -1.153 0.30650258 -0.30382031 -0.20767225 0.47893465
20.091999 8.7939997 -1.154 0.20386794 -0.23612495 -0.22141954 0.38254899
20.357 8.9860001 -1.174 -0.15156123 -0.14385551 0.36907941 0.42412832
20.215 9 -1.166 -0.029755436 -0.13291377 0.50540775 0.52343905
20.042999 8.9980001 -1.156 0.15108961 -0.13741869 -0.17108889 0.26642704
19.879999 8.9619999 -1.146 0.25503573 -0.12336743 -0.096743897 0.29936954
19.809999 9.0059996 -1.143 0.30157042 -0.1081256 -0.026774451 0.32148519
19.802999 9.0780001 -1.145 0.25154468 -0.01161018 0.19622353 0.31923845
19.799999 9.1520004 -1.147 0.27518517 -0.024894565 0.22083944 0.35371837
20.177 8.3669996 -1.301 0.27038166 -0.10823122 -0.072008952 0.30000922
20.16 8.4350004 -1.301 0.30476236 -0.15095276 -0.093373701 0.35268328
20.143999 8.5019999 -1.302 0.28965214 -0.17050457 -0.12911253 0.36005583
20.097 8.5570002 -1.301 0.35033822 -0.25049603 -0.13805027 0.45226431
20.068001 8.6190004 -1.301 0.3555738 -0.24940512 -0.1208979 0.45083472
20.049 8.6490002 -1.3 0.3387661 -0.26697859 -0.12267838 0.44843063
19.912001 8.6639996 -1.2920001 0.30629522 -0.23325762 -0.13495325 0.40796843
20.695 9.0810003 -1.353 0.18056889 -0.33132282 0.35718533 0.51957798
20.737 9.177 -1.358 0.094631046 -0.47104394 0.39213598 0.62016779
20.657 9.2189999 -1.354 0.074520335 -0.47524381 0.40155822 0.62662506
20.660999 9.2989998 -1.357 0.085868791 -0.48075044 0.4446595 0.66046691
20.486 9.2980003 -1.346 0.077832878 -0.30271292 0.45388016 0.55109006
20.445999 9.3190002 -1.344 0.077832878 -0.30271292 0.45388016 0.55109006
20.437 9.3920002 -1.345 -0.066936284 -0.68998104 0.45831269 0.83102638
19.943001 8.2810001 -1.39 0.13833217 -0.1503869 -0.16270113 0.26119658
20.256001 9.2840004 -1.441 -0.17838562 -0.17666757 0.40821293 0.47923967
