# .PCD v0.7 - Point Cloud Data file format
VERSION 0.7
FIELDS x y z normal_x normal_y normal_z curvature
SIZE 4 4 4 4 4 4 4
TYPE F F F F F F F
COUNT 1 1 1 1 1 1 1
WIDTH 664
HEIGHT 1
VIEWPOINT 0 0 0 1 0 0 0
POINTS 664
DATA ascii
4.6500001 -1.796 -0.75999999 -0.037932895 0.45504209 -0.35363722 0.57754785
4.6810002 -1.791 -0.764 -0.018007154 0.45760456 -0.358289 0.58146125
4.6999998 -1.781 -0.76700002 -0.012932447 0.46351403 -0.37960047 0.59925705
4.7280002 -1.775 -0.77100003 -0.0052339756 0.46321848 -0.37797105 0.5978803
4.7459998 -1.765 -0.773 0.0068098838 0.46045849 -0.37346855 0.5929141
4.7649999 -1.7539999 -0.77600002 0.010234603 0.46220371 -0.38074362 0.59891796
4.8130002 -1.755 -0.78399998 -0.002351189 0.4663842 -0.3963494 0.61205602
5.3109999 -1.766 -0.86799997 -0.0039373594 0.47515863 -0.46387982 0.66406
5.3540001 -1.761 -0.875 0.0024239197 0.47555983 -0.46929729 0.66813391
5.4289999 -1.766 -0.88800001 0.0097557409 0.4736802 -0.46137685 0.66131437
5.9530001 -1.78 -0.97799999 -0.0043284614 0.46700755 -0.50085431 0.68481374
6.0289998 -1.7819999 -0.99000001 0.0041669048 0.46826687 -0.50835764 0.691172
6.1110001 -1.796 -1.005 -0.0044261003 0.46801901 -0.51191735 0.69362867
6.4039998 -1.859 -1.058 0.030958038 0.46229625 -0.5223127 0.69820255
6.552 -1.8789999 -1.084 0.03504964 0.45927474 -0.51929104 0.69413614
6.533 -1.851 -1.08 0.040379778 0.45872527 -0.51898068 0.69383019
6.5430002 -1.832 -1.081 0.038012587 0.4589529 -0.5235315 0.69725746
6.4759998 -1.7920001 -1.067 0.037977755 0.45921215 -0.51784611 0.69316864
4.2779999 -1.932 -0.74299997 -0.19916725 0.20635527 -0.091897011 0.30115637
4.2820001 -1.918 -0.74199998 -0.20034337 0.22045535 -0.10026568 0.31431073
4.2740002 -1.898 -0.74000001 -0.19105637 0.24307816 -0.10970598 0.32806239
4.302 -1.903 -0.745 -0.2036476 0.25903776 -0.1268957 0.35309407
4.2919998 -1.882 -0.741 -0.17940138 0.28007868 -0.13383514 0.35852584
5.414 -1.766 -0.92799997 0.0047790352 0.4760001 -0.47941753 0.67560351
6.1789999 -1.817 -1.066 0.0015952419 0.46783602 -0.51722974 0.69742358
6.2870002 -1.8279999 -1.085 0.015076466 0.46697259 -0.5219394 0.700508
6.5190001 -1.874 -1.1289999 0.03418697 0.46244445 -0.50914532 0.68865997
6.5770001 -1.88 -1.1390001 0.040531665 0.45901322 -0.51086336 0.68798059
6.5640001 -1.853 -1.136 0.034024276 0.45970446 -0.50893778 0.68666112
6.5469999 -1.826 -1.131 0.034024976 0.45988426 -0.50895143 0.68679166
5.7459998 -1.771 -1.04 0.016073886 0.47258368 -0.49996188 0.68815374
6.1690001 -1.8150001 -1.1210001 -0.00079090614 0.46744707 -0.52719361 0.70458531
6.2389998 -1.814 -1.133 0.0063277222 0.46748564 -0.52106345 0.70006424
6.3119998 -1.824 -1.148 0.015894769 0.46459138 -0.51705658 0.69530231
6.4190001 -1.8329999 -1.168 0.02407955 0.46337643 -0.5068447 0.68716019
6.5310001 -1.842 -1.189 0.035744637 0.45975944 -0.50646824 0.68495733
3.5810001 -3.1289999 -0.852 0.24283081 0.21521866 -0.88487124 0.94248766
3.5810001 -3.109 -0.84899998 0.23739868 0.18286827 -0.9055481 0.95384294
3.5680001 -3.0780001 -0.84299999 0.2819303 0.15771227 -0.89156318 0.94828409
3.5669999 -3.0680001 -0.84200001 -0.20785339 -0.15965553 -0.084956527 0.27551866
3.5680001 -3.049 -0.83899999 -0.20785339 -0.15965553 -0.084956527 0.27551866
3.5569999 -3.02 -0.83399999 0.32487059 0.12003982 -0.87770993 0.94357044
3.5569999 -3.0009999 -0.83099997 0.30922157 0.12726034 -0.88789749 0.94877559
3.5610001 -2.9849999 -0.82999998 -0.23844472 -0.10844222 -0.08698824 0.27601185
3.566 -2.97 -0.829 -0.2191622 -0.10016029 -0.073390216 0.25189337
3.5539999 -2.931 -0.82200003 -0.28391665 -0.056005415 -0.10508639 0.30787727
3.5650001 -2.9030001 -0.81999999 -0.24285743 -0.051325861 -0.076365262 0.25970316
3.556 -2.8770001 -0.815 -0.26340932 -0.04418828 -0.08841297 0.28134307
3.5599999 -2.8429999 -0.81099999 -0.24182741 -0.052931257 -0.075986356 0.25895202
3.549 -2.825 -0.80699998 -0.24867149 -0.042762846 -0.078599602 0.26428029
3.563 -2.8180001 -0.80800003 -0.24721459 -0.032212321 -0.076466918 0.26076785
3.5669999 -2.803 -0.80699998 -0.24587199 -0.03286802 -0.075718284 0.25935805
3.556 -2.776 -0.80199999 -0.24520674 -0.035565663 -0.075646549 0.25906307
3.5639999 -2.7650001 -0.80199999 -0.24288711 -0.030407738 -0.073607773 0.25561079
3.8800001 -1.9450001 -0.76700002 -0.1108701 0.2475469 -0.085453779 0.28438354
3.8759999 -1.928 -0.76499999 -0.11044192 0.24572247 -0.084789127 0.28242904
3.8889999 -1.919 -0.76599997 -0.11124618 0.27411866 -0.10396659 0.31356946
3.8989999 -1.8940001 -0.76599997 -0.12049577 0.27418402 -0.10669583 0.31793097
3.9089999 -1.883 -0.76700002 -0.12976632 0.27607727 -0.11101225 0.32462543
3.95 -1.865 -0.773 -0.10963551 0.32465088 -0.1488421 0.37359351
3.973 -1.8609999 -0.77700001 -0.088344187 0.31718129 -0.13895336 0.35737473
4 -1.859 -0.78100002 -0.088439405 0.34688419 -0.1687353 0.39575469
4.2610002 -1.773 -0.82300001 -0.18612036 0.38833755 -0.2778042 0.51246661
5.4029999 -1.772 -1.043 0.010666282 0.47615114 -0.49367625 0.68596637
5.3870001 -1.748 -1.038 0.0082398644 0.47620901 -0.50776547 0.69618148
5.4390001 -1.7460001 -1.048 0.010089234 0.47601154 -0.51333094 0.70014101
5.5229998 -1.7640001 -1.066 0.0185067 0.47357669 -0.52063936 0.70404738
5.9489999 -1.8 -1.152 -0.0031078677 0.46494764 -0.5440225 0.71564412
6.0359998 -1.8049999 -1.169 -0.0043606982 0.46553624 -0.54092306 0.71368116
6.085 -1.8099999 -1.179 -0.011578172 0.46686235 -0.53640085 0.71121049
6.3130002 -1.814 -1.224 0.0068649705 0.4652774 -0.48908606 0.67508173
6.3499999 -1.803 -1.2309999 -0.0028141588 0.46516734 -0.47652116 0.66592866
3.5610001 -3.1789999 -0.90100002 0.31652877 0.20329213 -0.83579266 0.91655195
3.562 -3.1600001 -0.89899999 0.34436512 0.16784354 -0.83722067 0.92070472
3.556 -3.135 -0.89399999 0.34528571 0.13397159 -0.8534916 0.93038625
3.546 -3.1170001 -0.88999999 0.34681088 0.12762813 -0.85479081 0.93125403
3.549 -3.099 -0.88800001 0.34301415 0.12529898 -0.85910028 0.93349445
3.563 -3.092 -0.889 0.34301609 0.12529564 -0.85909998 0.93349439
3.553 -3.0639999 -0.884 0.33232492 0.12360728 -0.87020028 0.93966329
3.5569999 -3.0480001 -0.88200003 0.32034338 0.13449152 -0.87640744 0.94276077
3.562 -3.033 -0.88099998 0.3390767 0.1158237 -0.86684972 0.93798536
3.559 -3.0120001 -0.87699997 0.32986182 0.11673814 -0.87451607 0.94192088
3.549 -2.994 -0.87300003 0.33223712 0.110604 -0.87418371 0.9417069
3.5569999 -2.9809999 -0.87300003 0.32832822 0.11049377 -0.87790728 0.94378465
3.55 -2.9560001 -0.86799997 0.32480347 0.10567047 -0.8817752 0.94561672
3.5480001 -2.9360001 -0.86500001 -0.28193706 -0.075722069 -0.10781416 0.31120127
3.5450001 -2.915 -0.86199999 -0.28003147 -0.072580487 -0.10564137 0.30797023
3.5610001 -2.9089999 -0.86299998 -0.27463195 -0.068591177 -0.10077187 0.30047035
3.5539999 -2.8859999 -0.85900003 -0.26320308 -0.060559001 -0.091099232 0.28503039
3.5480001 -2.872 -0.85600001 -0.25675088 -0.066647992 -0.087999165 0.27947599
3.573 -2.8729999 -0.86000001 -0.24054906 -0.067650646 -0.077974975 0.26176432
3.5569999 -2.842 -0.85399997 -0.25026256 -0.056101818 -0.081779361 0.26919627
3.566 -2.8310001 -0.85399997 -0.24405001 -0.057061948 -0.078056842 0.26250589
3.5669999 -2.8139999 -0.852 -0.25780955 -0.037476175 -0.083886564 0.27369177
3.5639999 -2.793 -0.84799999 -0.24203867 -0.038978852 -0.074169725 0.25613126
3.8870001 -1.96 -0.81099999 -0.12522739 0.25185633 -0.092271656 0.29601955
3.8859999 -1.944 -0.80900002 -0.12803456 0.2699914 -0.10538125 0.3168492
3.901 -1.936 -0.81099999 -0.12931615 0.29965013 -0.12860754 0.35078877
3.925 -1.941 -0.81599998 -0.072323032 0.26739264 -0.090531439 0.2914196
3.9170001 -1.921 -0.81300002 -0.12717684 0.3196938 -0.14640456 0.37391493
3.934 -1.914 -0.81599998 -0.088382915 0.32184654 -0.13688463 0.36074111
3.9289999 -1.897 -0.81300002 -0.12752345 0.34907091 -0.17650032 0.41141838
4.0040002 -1.9170001 -0.829 -0.068077311 0.31537178 -0.12520108 0.34607685
4.0019999 -1.9 -0.82700002 -0.062441923 0.33191884 -0.14109156 0.36602724
3.99 -1.8789999 -0.82300001 -0.071040384 0.34467652 -0.15896749 0.38615972
3.9660001 -1.8609999 -0.81699997 -0.10057206 0.3712458 -0.2018486 0.43437433
4.0019999 -1.862 -0.824 -0.074784011 0.35188475 -0.17107224 0.39834815
3.9990001 -1.846 -0.82200003 -0.07247857 0.36438653 -0.18520108 0.41512662
4.0170002 -1.839 -0.82499999 -0.069083065 0.37536773 -0.19829771 0.4301109
4.046 -1.836 -0.82999998 -0.085205995 0.38350275 -0.21334967 0.44704866
4.066 -1.83 -0.83399999 -0.067899287 0.40177026 -0.23604092 0.47089806
4.401 -1.799 -0.89700001 -0.13675776 0.43908724 -0.34708476 0.57616675
4.3870001 -1.777 -0.89200002 -0.12766798 0.44341052 -0.35283619 0.58086604
4.5809999 -1.747 -0.92900002 -0.02689931 0.47238493 -0.44106841 0.64684808
4.678 -1.75 -0.949 -0.0012493662 0.4747391 -0.45607629 0.65831935
4.8099999 -1.738 -0.97399998 0.0042890855 0.4735921 -0.47145012 0.66826123
4.8629999 -1.74 -0.98500001 0.00077229738 0.47407269 -0.48066545 0.67511833
4.8889999 -1.732 -0.99000001 -0.00056446809 0.47399321 -0.47833493 0.67340493
5.027 -1.753 -1.0190001 0.0081311949 0.47526026 -0.48941043 0.68224698
5.0669999 -1.749 -1.027 0.0051160762 0.47536615 -0.49093851 0.68338847
5.1599998 -1.763 -1.0470001 0.0033203987 0.47525394 -0.49336559 0.68504518
5.2579999 -1.7589999 -1.067 0.0063854437 0.47591034 -0.50392181 0.69315845
5.3060002 -1.756 -1.076 0.0043100491 0.47625384 -0.50109804 0.69132882
5.3829999 -1.762 -1.092 0.0097148465 0.47596213 -0.51547611 0.70167655
5.447 -1.774 -1.1059999 0.016363917 0.47470272 -0.51844746 0.70313454
5.5229998 -1.779 -1.122 0.020684581 0.47322333 -0.52553654 0.7075004
5.6069999 -1.786 -1.14 0.023288216 0.47365636 -0.53525573 0.71511638
5.6609998 -1.784 -1.151 0.020647977 0.47243127 -0.5381453 0.7163924
5.7449999 -1.79 -1.168 0.017530069 0.47043461 -0.54453903 0.71981859
5.8130002 -1.791 -1.182 0.016002433 0.46588466 -0.5517959 0.72234571
5.914 -1.801 -1.2029999 0.001449788 0.46660897 -0.55025387 0.72146058
6.027 -1.825 -1.228 -0.013882061 0.46576339 -0.53861558 0.71220434
6.0929999 -1.823 -1.242 -0.013894811 0.46626326 -0.54371214 0.71639192
6.1339998 -1.8150001 -1.25 -0.01712681 0.46703339 -0.53644216 0.7114659
6.198 -1.812 -1.263 -0.012623003 0.46736091 -0.51057506 0.69229507
6.27 -1.811 -1.277 -0.025217921 0.46838528 -0.49333119 0.68073225
6.3200002 -1.804 -1.2869999 -0.02777651 0.46433288 -0.46398607 0.65700805
6.3660002 -1.795 -1.296 -0.026026666 0.46219352 -0.4404521 0.63898224
6.4850001 -1.818 -1.322 -0.012661224 0.45934048 -0.42354798 0.62493753
3.444 -3.1600001 -0.91799998 0.33747187 0.17687604 -0.83530855 0.9181028
3.421 -3.119 -0.90799999 0.34381804 0.13676196 -0.85430133 0.93099165
3.4319999 -3.109 -0.90899998 0.34359056 0.13433996 -0.85424733 0.93050534
3.4070001 -3.0669999 -0.898 0.35552779 0.12565428 -0.84829652 0.92832965
3.4119999 -3.052 -0.89700001 0.35508671 0.12263998 -0.84982741 0.92915756
3.404 -3.0350001 -0.89300001 0.34848231 0.13927324 -0.85156286 0.9305892
3.415 -3.026 -0.89300001 0.33379316 0.13535976 -0.86533976 0.93731159
3.414 -3.006 -0.88999999 0.3358793 0.13298029 -0.86431265 0.93676841
3.415 -2.9879999 -0.88800001 0.33011624 0.14120822 -0.8664993 0.93794328
3.4170001 -2.97 -0.88599998 0.32292253 0.13612016 -0.87426138 0.94188142
3.3970001 -2.934 -0.87699997 0.31564873 0.14542899 -0.87767661 0.94398087
3.4000001 -2.918 -0.875 0.3132937 0.14129138 -0.88089943 0.94556862
3.3929999 -2.9030001 -0.87199998 0.3080804 0.1367173 -0.88635778 0.94828016
3.402 -2.892 -0.87199998 0.30540892 0.13425575 -0.88911235 0.94964206
3.424 -2.8929999 -0.87599999 0.30540892 0.13425575 -0.88911235 0.94964206
3.4100001 -2.862 -0.86900002 0.30347404 0.12512839 -0.89314032 0.95155311
3.405 -2.839 -0.86500001 -0.26495185 -0.076285377 -0.09565866 0.29183817
3.4319999 -2.816 -0.866 -0.26441735 -0.067465588 -0.093325347 0.28840554
3.3970001 -2.7509999 -0.85100001 -0.26608142 -0.048694137 -0.090945065 0.28537947
3.395 -2.7320001 -0.84799999 -0.26427114 -0.033177894 -0.087469459 0.2803407
3.45 -2.7409999 -0.85900003 -0.25017899 -0.04553606 -0.079980493 0.26657072
3.428 -2.7060001 -0.85000002 -0.25796238 -0.026947755 -0.082706213 0.27223352
3.425 -2.6949999 -0.84799999 -0.25873318 -0.025341164 -0.083038419 0.27291101
3.434 -2.6849999 -0.84799999 -0.25239986 -0.026209269 -0.079042107 0.26578239
3.451 -2.6630001 -0.84799999 -0.24259695 -0.017690603 -0.072159886 0.25371891
3.427 -2.6270001 -0.83899999 -0.25302097 -0.0087425057 -0.077931464 0.26489499
3.4419999 -2.605 -0.83899999 -0.24618119 0.0029489864 -0.07307598 0.25681508
3.4460001 -2.599 -0.83899999 -0.24619442 0.0013420228 -0.073146284 0.25683433
3.4579999 -2.5239999 -0.83099997 -0.24494132 0.036684927 -0.071952105 0.25791305
3.595 -2.174 -0.81300002 -0.22517039 0.10305762 -0.074326724 0.25854796
3.6789999 -1.964 -0.80599999 -0.16064949 0.18751016 -0.074600816 0.2579411
3.825 -1.906 -0.829 -0.17842495 0.31396681 -0.16262659 0.39605308
3.8610001 -1.909 -0.83600003 -0.16171083 0.34821025 -0.19100237 0.42881542
4.2049999 -1.77 -0.89300001 -0.11488078 0.4362601 -0.33064485 0.55932683
4.223 -1.762 -0.89600003 -0.13024977 0.43948832 -0.35150826 0.57764441
4.348 -1.783 -0.92400002 -0.10229449 0.45491582 -0.37469968 0.59817421
4.3260002 -1.758 -0.917 -0.11299788 0.4519279 -0.37207595 0.59619451
5.0339999 -1.7690001 -1.066 0.0066453349 0.47535685 -0.49279836 0.68473244
5.039 -1.753 -1.066 0.0066453349 0.47535685 -0.49279836 0.68473244
5.1149998 -1.762 -1.082 0.00095976703 0.47546747 -0.49250582 0.68456715
5.1669998 -1.762 -1.0930001 0.0085377544 0.47515416 -0.50034112 0.69006205
5.2150002 -1.76 -1.103 0.01075215 0.47532114 -0.50800872 0.69578636
5.2950001 -1.778 -1.1210001 0.010285416 0.47567314 -0.5188725 0.70398819
5.3340001 -1.773 -1.1289999 0.0094271833 0.47585276 -0.51886183 0.7040897
5.3870001 -1.772 -1.141 0.011520672 0.47564232 -0.52178031 0.70613247
5.46 -1.777 -1.156 0.019714493 0.47415453 -0.52668995 0.70895237
5.513 -1.776 -1.1670001 0.019243361 0.47303003 -0.53030276 0.71087885
5.5879998 -1.781 -1.184 0.025713958 0.47162709 -0.5427528 0.71949559
5.6750002 -1.789 -1.2029999 0.020865653 0.47134575 -0.55002224 0.72465622
5.8660002 -1.8200001 -1.245 0.0062543373 0.4672153 -0.54160601 0.71530855
5.9590001 -1.829 -1.266 -0.0064577339 0.46786687 -0.51936716 0.69905889
6.0380001 -1.8329999 -1.283 -0.004875347 0.46746823 -0.5319773 0.70820206
6.296 -1.869 -1.34 -0.037416305 0.46509498 -0.5065074 0.6886676
6.158 -1.806 -1.307 -0.024958232 0.46832064 -0.49374539 0.68097848
6.2389998 -1.8200001 -1.325 -0.034039095 0.46698985 -0.5125404 0.69421595
6.2800002 -1.811 -1.3329999 -0.037611201 0.46775544 -0.48191947 0.67264861
6.3520002 -1.8099999 -1.348 -0.048760541 0.46323168 -0.46342129 0.65705436
6.4720001 -1.823 -1.375 -0.053402208 0.45697209 -0.41816297 0.62171984
3.405 -3.141 -0.94999999 0.3725408 0.13708849 -0.82557702 0.91605532
3.4779999 -2.2060001 -0.83099997 -0.23002866 0.085577793 -0.073291689 0.25614139
4.1550002 -1.763 -0.92299998 -0.054802403 0.44793859 -0.33389294 0.56137043
4.0580001 -1.7079999 -0.89700001 -0.064451039 0.44713342 -0.33258957 0.56097955
4.1810002 -1.743 -0.926 -0.066933766 0.45352963 -0.35538766 0.58006001
4.368 -1.7640001 -0.96799999 -0.093356945 0.46274096 -0.40089744 0.61932498
4.7820001 -1.739 -1.056 0.010880541 0.47373548 -0.47761607 0.67280072
4.8060002 -1.7309999 -1.0599999 0.0051231985 0.4738428 -0.476722 0.67217344
4.8439999 -1.727 -1.068 0.012076935 0.47412011 -0.49238163 0.68364859
4.8720002 -1.72 -1.074 0.013005307 0.47407866 -0.49173838 0.68317372
5.8979998 -1.83 -1.308 0.00528327 0.46833465 -0.52769047 0.70556539
5.9710002 -1.832 -1.324 0.00095389877 0.46771431 -0.52479643 0.70297146
5.9990001 -1.8200001 -1.329 -0.012377464 0.46706757 -0.51580667 0.69596112
6.026 -1.807 -1.334 -0.00098879822 0.46721935 -0.50488991 0.68790168
6.0840001 -1.803 -1.347 -0.0085436199 0.46726903 -0.49099433 0.67785603
6.3860002 -1.88 -1.419 -0.069642112 0.46078795 -0.45713392 0.65279937
6.1900001 -1.802 -1.37 -0.019084996 0.46561691 -0.45531291 0.65151608
6.276 -1.806 -1.39 -0.080295801 0.46107325 -0.45131034 0.65016687
6.3109999 -1.794 -1.397 -0.095131055 0.45110923 -0.41525394 0.62047184
6.388 -1.794 -1.414 -0.11136292 0.43964902 -0.37464449 0.58826137
3.3759999 -3.1240001 -0.98000002 0.390681 0.16257674 -0.79293913 0.89878547
3.402 -3.128 -0.986 0.3908841 0.16219424 -0.79291886 0.89878678
3.378 -3.096 -0.97600001 0.38452479 0.16366351 -0.80068338 0.90318269
3.355 -3.0550001 -0.96499997 0.37679544 0.15483132 -0.8143658 0.9105708
3.342 -3.0239999 -0.958 0.37271282 0.17555977 -0.81156087 0.91014677
3.3310001 -2.9949999 -0.95099998 0.3578704 0.15249825 -0.83819711 0.92406785
3.3010001 -2.602 -0.88499999 -0.29566556 -0.01255597 -0.1085397 0.31520888
3.3 -2.5840001 -0.88200003 -0.29094419 -0.011460923 -0.10475403 0.30944028
3.296 -2.5639999 -0.87900001 -0.28783768 0.00013870187 -0.10165957 0.30526254
3.2950001 -2.556 -0.87699997 -0.28863123 0.0025412701 -0.10215929 0.30618781
3.312 -2.552 -0.88 -0.2833387 0.005659963 -0.098062783 0.29988191
3.346 -2.335 -0.85600001 -0.25555623 0.076543622 -0.088243425 0.28098899
3.3440001 -2.2939999 -0.85000002 -0.25518507 0.089104801 -0.090462655 0.28503084
3.4400001 -2.1440001 -0.84899998 -0.23199913 0.093740851 -0.076021194 0.26151514
3.517 -2.0120001 -0.84899998 -0.21205993 0.11701643 -0.072289586 0.25276083
3.529 -1.99 -0.84899998 -0.21241188 0.12023465 -0.073420167 0.25488368
3.632 -1.9069999 -0.861 -0.15345204 0.26255175 -0.11535406 0.32524994
3.7219999 -1.9400001 -0.884 -0.15627418 0.27961823 -0.1274274 0.34474006
3.7249999 -1.9349999 -0.884 -0.16021825 0.28008953 -0.12957269 0.34771988
4.3600001 -1.7690001 -1.006 -0.046329696 0.47486776 -0.43755388 0.64737874
4.3530002 -1.75 -1.002 -0.047367606 0.47474527 -0.43725324 0.64716083
4.618 -1.75 -1.062 0.0086563174 0.47575659 -0.47067133 0.66929126
4.631 -1.738 -1.063 0.010432811 0.47601283 -0.47611046 0.67333364
4.6750002 -1.7460001 -1.074 0.0088101439 0.47595841 -0.47603482 0.67321849
4.704 -1.7410001 -1.08 0.0057898518 0.47575384 -0.47586733 0.67292273
4.7480001 -1.74 -1.09 0.01217646 0.47542402 -0.48660403 0.68041146
4.7940001 -1.74 -1.1 0.01778806 0.47388619 -0.49176523 0.68316728
4.8280001 -1.7359999 -1.108 0.013893556 0.47405407 -0.49226782 0.68355536
5.0339999 -1.766 -1.1569999 0.0076626725 0.47412848 -0.5346067 0.71460539
5.1149998 -1.777 -1.176 0.013427913 0.47186115 -0.55684268 0.73000479
5.1479998 -1.77 -1.183 0.013276597 0.47188216 -0.55494595 0.72856987
5.2179999 -1.776 -1.199 0.0093013449 0.47309321 -0.54780757 0.72387624
5.2639999 -1.774 -1.209 0.0070231026 0.4741554 -0.54422253 0.72183853
5.3119998 -1.772 -1.22 0.0098893577 0.4738594 -0.5478068 0.72438443
5.3699999 -1.7819999 -1.234 0.010373113 0.47579697 -0.51929802 0.70438683
5.4920001 -1.804 -1.263 0.013831425 0.47517651 -0.49998263 0.68990338
5.5359998 -1.799 -1.273 0.025738386 0.4729521 -0.47390324 0.67002273
5.638 -1.813 -1.298 0.040089358 0.47334585 -0.48422998 0.67833775
5.7620001 -1.834 -1.327 0.060570613 0.46866184 -0.53272182 0.7121132
5.8309999 -1.836 -1.3430001 -0.012204167 0.4652355 -0.5616765 0.72943366
5.9130001 -1.842 -1.362 0.0037856521 0.46869969 -0.5212546 0.70099938
6.0009999 -1.859 -1.3839999 -0.017204428 0.46623054 -0.54591626 0.71811658
6.02 -1.844 -1.387 -0.031893376 0.46396926 -0.55307221 0.72261578
6.0250001 -1.825 -1.387 -0.014275577 0.46734571 -0.50033623 0.6848008
6.0760002 -1.8200001 -1.398 -0.02626778 0.46710533 -0.49732232 0.68279344
6.1350002 -1.817 -1.4119999 -0.016420631 0.46769595 -0.47123832 0.66413456
6.1859999 -1.811 -1.423 -0.019602133 0.45906219 -0.40246448 0.6108191
6.2140002 -1.798 -1.429 -0.051644966 0.44901711 -0.36879748 0.58334821
6.303 -1.814 -1.45 -0.12601626 0.45012432 -0.4560656 0.65306038
6.3899999 -1.818 -1.471 -0.138257 0.43204021 -0.36877593 0.58461046
6.5489998 -1.841 -1.5089999 -0.11853676 0.41523811 -0.3136 0.53368402
3.309 -3.131 -1.018 0.40396309 0.21442345 -0.74383062 0.87318248
3.346 -3.1459999 -1.027 0.40885934 0.19316378 -0.75009942 0.87585807
3.339 -3.1199999 -1.021 0.40715727 0.20422466 -0.74765629 0.87548536
3.306 -3.0699999 -1.007 0.41000333 0.17985079 -0.76061797 0.88260335
3.3659999 -3.105 -1.024 0.4017902 0.1890077 -0.76111382 0.88116604
3.359 -3.089 -1.02 0.40552193 0.1772016 -0.76471019 0.88353276
3.362 -3.072 -1.017 0.40708539 0.17287509 -0.76538074 0.88397509
3.3510001 -3.043 -1.01 0.39859065 0.1814481 -0.77588439 0.89095145
3.3329999 -3.0079999 -1.001 0.3922489 0.18666999 -0.78123784 0.89388895
3.329 -2.9860001 -0.99699998 0.39220065 0.17990455 -0.78539062 0.89611685
4.3239999 -1.707 -1.041 -0.030800231 0.47576141 -0.45381302 0.6582126
4.3660002 -1.707 -1.051 -0.033266358 0.47752956 -0.44951063 0.65665895
4.4039998 -1.706 -1.059 -0.011709079 0.47476158 -0.46291882 0.66319638
5.4910002 -1.8 -1.324 -0.013238681 0.47545421 -0.50885129 0.69653541
5.665 -1.836 -1.368 0.060983852 0.47070765 -0.51814395 0.7026791
5.928 -1.899 -1.4349999 -0.0209054 0.4591606 -0.60069329 0.75637156
5.9330001 -1.881 -1.4349999 -0.0078230724 0.4641557 -0.57072097 0.73567939
5.9260001 -1.858 -1.432 -0.0077822963 0.46415389 -0.57073373 0.73568773
5.9450002 -1.8430001 -1.4349999 -0.0063033351 0.46934143 -0.51132298 0.69409817
5.9310002 -1.829 -1.431 0.0093925009 0.46866706 -0.47630292 0.66828251
5.9349999 -1.8099999 -1.4299999 0.0069168778 0.46887359 -0.47923669 0.67049092
5.9450002 -1.7920001 -1.431 0.0059303548 0.46767005 -0.47914419 0.6695742
6.0209999 -1.794 -1.45 -0.042193905 0.45082939 -0.37523633 0.5880729
6.1139998 -1.801 -1.473 -0.084246017 0.45248777 -0.40156531 0.6108169
6.1529999 -1.791 -1.4809999 -0.075693123 0.43163645 -0.32070804 0.54304063
6.2220001 -1.79 -1.498 -0.079557098 0.40741879 -0.26972756 0.49504784
6.2870002 -1.7970001 -1.5140001 -0.068287402 0.36334729 -0.20151532 0.42106158
3.3410001 -3.1659999 -1.077 0.4185079 0.2085413 -0.720487 0.85891783
3.3369999 -3.142 -1.072 0.41587621 0.22224985 -0.71569145 0.85706609
3.3380001 -3.1229999 -1.069 0.41635001 0.21733725 -0.71494728 0.85541362
3.3499999 -3.125 -1.071 0.41543606 0.21827497 -0.71499306 0.85524625
3.3280001 -3.0840001 -1.0599999 0.41685638 0.20978568 -0.71998817 0.85799897
3.3699999 -3.0840001 -1.068 0.41499865 0.2039575 -0.72872037 0.86305034
3.3789999 -3.073 -1.068 0.41772887 0.18644579 -0.73907125 0.86918682
3.3699999 -3.0450001 -1.061 0.40822279 0.20535555 -0.74501336 0.87399179
3.3380001 -2.997 -1.0470001 0.40304887 0.19718476 -0.7590875 0.88178462
3.346 -2.994 -1.048 0.40304887 0.19718476 -0.7590875 0.88178462
3.2920001 -2.927 -1.025 0.40911159 0.18129991 -0.7621609 0.88381624
3.2290001 -2.852 -1 0.40503421 0.14065915 -0.78897548 0.89795321
3.197 -2.806 -0.986 0.42560834 0.11714945 -0.76893854 0.88664138
3.1889999 -2.7809999 -0.98000002 0.43140844 0.11335818 -0.76132977 0.88237542
3.1830001 -2.7579999 -0.97500002 0.42990714 0.10993083 -0.76490593 0.88429976
3.1760001 -2.743 -0.97100002 0.42520002 0.10294983 -0.77435493 0.88939267
3.1860001 -2.734 -0.97100002 0.42158365 0.095499694 -0.78180975 0.89335293
3.1900001 -2.72 -0.97000003 0.42683661 0.09004955 -0.77559781 0.88985974
3.1689999 -2.6849999 -0.95999998 0.42475325 0.081520975 -0.78073275 0.8925271
3.197 -2.691 -0.96600002 0.4285098 0.083886832 -0.7746433 0.88922995
3.3629999 -1.905 -0.88499999 -0.31945327 0.18947659 -0.15518287 0.40253386
3.4059999 -1.88 -0.89099997 -0.32678959 0.19226325 -0.16352019 0.41291094
4.2600002 -1.732 -1.076 -0.025732774 0.47662342 -0.46122164 0.66374505
4.29 -1.729 -1.0829999 -0.030566681 0.47664323 -0.46454462 0.66627681
4.4910002 -1.737 -1.132 -0.019700438 0.47607103 -0.50950074 0.6975835
4.7150002 -1.7410001 -1.187 0.023691829 0.47258615 -0.54894257 0.72473228
4.8049998 -1.749 -1.21 0.01608913 0.47394246 -0.53813523 0.71726555
4.8779998 -1.758 -1.229 0.016527064 0.47331548 -0.52544242 0.70738286
4.9429998 -1.765 -1.245 0.015603067 0.4723402 -0.53461373 0.71355486
4.9910002 -1.7640001 -1.257 0.011481011 0.47313184 -0.52404231 0.70612031
5.086 -1.78 -1.281 0.013356471 0.47285169 -0.54755533 0.72359103
5.1479998 -1.784 -1.2970001 0.016207084 0.47162896 -0.55605185 0.72930801
5.21 -1.788 -1.313 -0.011642346 0.47273442 -0.554048 0.72841096
5.2600002 -1.796 -1.326 -0.018682633 0.47062832 -0.57489395 0.74319792
6.283 -2.1070001 -1.604 -0.00061977562 -0.29135174 -0.07284987 0.30032203
6.3010001 -2.0899999 -1.607 -0.028234214 0.33287138 -0.84256828 0.90637839
6.3049998 -2.0699999 -1.607 0.035223931 -0.39566711 -0.16131878 0.42873877
6.2919998 -2.0439999 -1.601 -0.064426564 0.36230603 -0.80459332 0.88475245
6.2020001 -1.993 -1.575 -0.075657018 0.44259402 -0.64751565 0.78796577
6.0339999 -1.927 -1.528 -0.034555878 0.45985502 -0.60831255 0.76335108
6.0029998 -1.897 -1.518 0.015178168 0.46120176 -0.59425241 0.75237846
5.9949999 -1.873 -1.5140001 0.037144441 0.46552363 -0.54445577 0.71730334
6.0019999 -1.855 -1.5140001 0.024020545 0.46603295 -0.53522241 0.71008927
6.0029998 -1.834 -1.513 -0.025329769 0.45487109 -0.38868207 0.59885144
6.0050001 -1.814 -1.512 -0.057064231 0.41011599 -0.27110174 0.4949218
6.0139999 -1.796 -1.513 -0.052390382 0.41319865 -0.27631116 0.49982569
6.052 -1.798 -1.522 -0.06028023 0.32573405 -0.15364757 0.36516291
6.1279998 -1.8 -1.5420001 -0.0978112 0.40188318 -0.26387918 0.49062139
6.1750002 -1.7920001 -1.553 -0.066100717 0.35669872 -0.18798718 0.40858594
6.2639999 -1.7970001 -1.575 -0.071659818 0.24962482 -0.091758192 0.2754401
6.375 -1.808 -1.604 -0.075242683 0.26693502 -0.10444123 0.29635069
6.3870001 -1.79 -1.6059999 -0.054415926 0.24629258 -0.087585419 0.26700625
3.3329999 -3.1530001 -1.124 0.42181078 0.24798164 -0.67230141 0.83150971
3.365 -3.164 -1.132 0.40684366 0.26751152 -0.66934383 0.82771087
3.365 -3.1440001 -1.1289999 0.42304137 0.2380712 -0.67616117 0.8323676
3.3829999 -3.102 -1.125 0.42129171 0.23425989 -0.68319273 0.83613199
3.401 -3.108 -1.1289999 0.42069426 0.23551731 -0.68285704 0.83591014
3.467 -3.148 -1.15 0.40526724 0.24849238 -0.69588578 0.84276158
3.4449999 -3.109 -1.138 0.42065918 0.22361118 -0.69579637 0.84326077
3.431 -3.0769999 -1.13 0.42232987 0.2281636 -0.69378006 0.84365392
3.233 -2.8380001 -1.046 0.44261208 0.14391448 -0.7283476 0.86435354
3.2550001 -2.839 -1.051 0.43618363 0.1421508 -0.74084949 0.87139028
3.26 -2.7720001 -1.04 0.43234077 0.12486306 -0.75533932 0.87923086
3.289 -2.779 -1.048 0.42363989 0.12105705 -0.77045023 0.88753545
3.3039999 -2.783 -1.051 0.41697195 0.11945081 -0.7798847 0.89238679
3.2950001 -2.7579999 -1.045 0.4147734 0.11237361 -0.78543645 0.89530736
3.3499999 -2.7850001 -1.061 0.41174728 0.1259371 -0.78484857 0.89520013
3.358 -2.7750001 -1.061 0.40155852 0.11826445 -0.80113858 0.90391302
3.322 -2.7279999 -1.045 0.40349451 0.10367008 -0.8031435 0.90476227
3.326 -2.714 -1.044 0.3976315 0.1021949 -0.81088763 0.9088968
3.22 -2.6029999 -1.002 0.44567642 0.066092119 -0.7499578 0.87488991
3.1830001 -2.5250001 -0.98100001 0.43067735 0.036541328 -0.77824354 0.89021415
3.2090001 -2.529 -0.98799998 0.43338999 0.04261912 -0.77341437 0.88758832
3.198 -2.503 -0.98100001 0.42944971 0.028368421 -0.78047806 0.89127874
3.2130001 -2.4990001 -0.98400003 0.43177405 0.022651805 -0.77718091 0.88935488
3.1989999 -2.464 -0.97500002 0.42571032 0.0056579653 -0.78739381 0.89512587
3.3510001 -2.0899999 -0.95099998 -0.35330179 0.13912441 -0.19575402 0.42719713
3.3659999 -2.0840001 -0.95300001 -0.34618279 0.1409798 -0.18783796 0.41833115
3.3900001 -2.085 -0.95899999 -0.32881159 0.15409163 -0.17475697 0.40299043
3.3699999 -2.0580001 -0.95099998 -0.34057912 0.15995473 -0.19127893 0.42209867
3.375 -2.046 -0.94999999 -0.33973074 0.16734418 -0.1933403 0.42520761
3.3670001 -2.027 -0.94499999 -0.33230197 0.16600165 -0.18530896 0.41511512
3.375 -2.0250001 -0.94700003 -0.33230197 0.16600165 -0.18530896 0.41511512
3.3789999 -2.013 -0.94599998 -0.32676762 0.17301995 -0.18315604 0.41262466
3.382 -2 -0.94499999 -0.32833096 0.1758429 -0.1864835 0.41653097
3.3800001 -1.985 -0.94300002 -0.32977131 0.18125312 -0.19130206 0.42213538
3.3829999 -1.972 -0.94199997 -0.32604533 0.18210256 -0.1876837 0.41796181
3.3929999 -1.964 -0.94300002 -0.32879695 0.18166031 -0.19045964 0.42116836
3.3989999 -1.946 -0.94199997 -0.3280836 0.18944788 -0.19452411 0.42587438
3.405 -1.9349999 -0.94199997 -0.3207888 0.19402944 -0.18939847 0.42002934
3.4070001 -1.923 -0.94099998 -0.32245401 0.18907529 -0.18805462 0.41843829
3.4300001 -1.921 -0.94599998 -0.29999581 0.21268335 -0.18025506 0.40954068
3.414 -1.898 -0.93900001 -0.30001852 0.20803294 -0.17713791 0.4057914
3.434 -1.895 -0.94300002 -0.26185608 0.24647945 -0.16990811 0.39773041
3.4430001 -1.886 -0.94400001 -0.24064577 0.27063727 -0.17724004 0.40319842
3.4100001 -1.854 -0.93199998 -0.30171078 0.23026085 -0.16916677 0.41553199
3.4089999 -1.847 -0.93099999 -0.30435908 0.22612619 -0.16877124 0.41503161
3.405 -1.831 -0.92799997 -0.30009133 0.24565952 -0.17872909 0.42702165
4.1279998 -1.8279999 -1.104 -0.019407151 0.48063976 -0.44700187 0.65665966
4.1409998 -1.819 -1.1059999 -0.020160476 0.47955531 -0.44694924 0.65585315
4.1339998 -1.8 -1.103 -0.018345367 0.47593683 -0.44682711 0.65307492
4.118 -1.778 -1.096 -0.015451054 0.47526115 -0.44016576 0.64796436
4.9250002 -1.79 -1.301 0.00072353147 0.47411662 -0.51678252 0.70132113
4.9689999 -1.788 -1.312 0.027416989 0.4710964 -0.5423525 0.71890873
5.007 -1.784 -1.322 0.018291688 0.47234929 -0.5327484 0.71222836
5.086 -1.794 -1.3430001 0.041695897 0.469901 -0.55709434 0.72999972
6.1170001 -2.0769999 -1.632 -0.015036451 -0.247741 -0.052132487 0.25361288
6.1269999 -2.059 -1.633 -0.014325378 -0.31914735 -0.09567064 0.33348632
6.1360002 -2.04 -1.6339999 -0.018988345 -0.28641745 -0.072686732 0.29610619
6.1269999 -2.016 -1.63 -0.064280868 0.36354023 -0.80758309 0.88796622
6.1339998 -1.997 -1.63 -0.05897624 0.36363399 -0.80403101 0.88440585
6.1370001 -1.987 -1.63 0.014341648 -0.36420357 -0.12818736 0.38637018
6.1430001 -1.9680001 -1.63 0.038852874 -0.37317136 -0.13914639 0.40016013
6.1360002 -1.9450001 -1.626 0.015135144 -0.35744479 -0.12225971 0.3780784
6.1430001 -1.852 -1.62 -0.092560917 0.220171 -0.073906302 0.25000986
6.1799998 -1.799 -1.626 -0.068153098 0.23721778 -0.080602586 0.25964189
3.279 -3.089 -1.141 0.44278094 0.22448362 -0.65559971 0.82234955
3.2809999 -3.072 -1.1390001 0.44560179 0.22151597 -0.65268075 0.82074505
3.2880001 -3.059 -1.138 0.44161287 0.23496647 -0.65238953 0.82209688
3.2839999 -3.046 -1.1339999 0.44365138 0.22732162 -0.6575948 0.82518637
3.27 -3.0139999 -1.125 0.44499439 0.22496048 -0.64864844 0.81815159
3.332 -3.052 -1.145 0.42989781 0.23141123 -0.67871881 0.83607566
3.4449999 -3.1359999 -1.184 0.41894317 0.24981709 -0.66444999 0.82426679
3.4519999 -3.1229999 -1.183 0.42508808 0.23672326 -0.66914803 0.82734329
3.4449999 -3.0969999 -1.177 0.42677072 0.2294949 -0.68266881 0.83716059
3.3340001 -2.977 -1.132 0.43496165 0.21639915 -0.68468094 0.83952856
3.1830001 -2.796 -1.066 0.46165687 0.12859526 -0.6979959 0.84667706
3.204 -2.796 -1.071 0.45994624 0.13586459 -0.69764167 0.84658939
3.1989999 -2.7750001 -1.066 0.46133989 0.11909555 -0.70368898 0.84982139
3.198 -2.756 -1.062 0.46133405 0.1128697 -0.70666701 0.85143816
3.2049999 -2.7449999 -1.061 0.46394211 0.10828585 -0.70306754 0.84927738
3.234 -2.7609999 -1.071 0.46154401 0.11659411 -0.70446563 0.85022873
3.3959999 -2.8829999 -1.127 0.43382078 0.18145056 -0.71950001 0.85953772
3.325 -2.803 -1.098 0.43452132 0.14433345 -0.74149591 0.87146837
3.313 -2.7750001 -1.09 0.43765488 0.13464312 -0.74091357 0.87098992
3.244 -2.6989999 -1.061 0.45907304 0.10127127 -0.71627283 0.85676759
3.2579999 -2.694 -1.064 0.44859394 0.10135276 -0.73644471 0.86825097
3.1889999 -2.619 -1.036 0.45956215 0.081310734 -0.72194785 0.85966128
3.1559999 -2.566 -1.0190001 0.45854515 0.059427597 -0.72901118 0.86328012
3.1670001 -2.559 -1.02 0.45460635 0.057492517 -0.73677379 0.86764508
3.1570001 -2.5339999 -1.013 0.45153162 0.036636256 -0.74521941 0.87210953
3.1630001 -2.523 -1.013 0.45447007 0.035312101 -0.74037313 0.86944944
3.1489999 -2.4949999 -1.005 0.45449808 0.032141518 -0.74235916 0.87103313
3.171 -2.497 -1.01 0.45616183 0.031709448 -0.73821592 0.86836159
3.1440001 -2.451 -0.99599999 0.45638862 0.0057039754 -0.73799694 0.86773419
3.1619999 -2.45 -1 0.44135675 0.0043507032 -0.76374364 0.8821106
3.1730001 -2.4419999 -1.001 0.4335624 -0.019554542 -0.77373505 0.88714409
3.1760001 -2.4289999 -0.99900001 0.43234643 -0.027262578 -0.77444518 0.88737369
3.1849999 -2.4200001 -1 0.42424712 -0.040703245 -0.787714 0.89562035
3.197 -2.4130001 -1.002 0.4258554 -0.043638162 -0.78489721 0.89404738
3.178 -2.391 -0.99299997 0.42765003 -0.051978845 -0.7805959 0.89158082
3.187 -2.382 -0.99400002 0.43101797 -0.058200233 -0.77415192 0.88796109
3.1919999 -2.3699999 -0.99299997 0.42370746 -0.073402986 -0.7802124 0.8908689
3.201 -2.3610001 -0.99299997 0.4271943 -0.084752381 -0.77640378 0.89021391
3.214 -2.355 -0.99599999 0.42143768 -0.09476912 -0.78144634 0.89288819
3.2219999 -2.345 -0.99599999 0.42081696 -0.098705925 -0.77916008 0.89102197
3.2520001 -2.352 -1.0039999 0.42001313 -0.10839634 -0.77663636 0.88956439
3.24 -2.3199999 -0.99599999 0.41598648 -0.10852761 -0.78232974 0.8926717
3.211 -2.2839999 -0.98299998 0.41698653 -0.11483166 -0.77835423 0.89044899
3.214 -2.27 -0.98199999 0.41650653 -0.10872955 -0.78151798 0.89222765
3.2160001 -2.257 -0.98000002 0.41645563 -0.10855887 -0.78165698 0.89230484
3.27 -2.28 -0.99599999 0.41634768 -0.10596326 -0.78281462 0.89295709
3.244 -2.2460001 -0.98500001 0.41809309 -0.11247604 -0.77774966 0.89013886
3.234 -2.2309999 -0.98000002 0.41451728 -0.10758059 -0.78474975 0.89399683
3.2420001 -2.2219999 -0.98000002 -0.37395325 0.11420247 -0.21283853 0.44517803
3.2409999 -2.207 -0.97799999 -0.37322041 0.11110643 -0.21061358 0.44271457
3.2160001 -2.175 -0.96700001 -0.37345386 0.10637338 -0.2091122 0.44103399
3.2249999 -2.1659999 -0.96799999 -0.37175989 0.10486163 -0.20628509 0.43789831
3.2219999 -2.1489999 -0.96399999 -0.3956686 0.12468223 -0.21458244 0.46705988
3.2049999 -2.1300001 -0.95700002 -0.39346153 0.12162493 -0.21038324 0.46245617
3.2019999 -2.1129999 -0.954 0.40450364 -0.10428602 -0.76856589 0.8747527
3.1989999 -2.0969999 -0.95099998 0.40964586 -0.10802704 -0.75893629 0.86917424
3.207 -2.0880001 -0.95099998 0.40397903 -0.10644251 -0.76840663 0.87463009
3.2119999 -2.0769999 -0.95099998 -0.40099472 0.14805022 -0.23269659 0.48668608
3.2179999 -2.0669999 -0.95099998 -0.39844096 0.14954147 -0.22965592 0.48359042
3.2520001 -2.0669999 -0.95899999 -0.39622465 0.1498162 -0.22655761 0.48038238
3.4549999 -2.1830001 -1.024 -0.29464823 0.11648823 -0.12686315 0.34129363
3.309 -2.075 -0.97299999 -0.37396288 0.14303721 -0.22489738 0.45922405
3.3399999 -2.0799999 -0.98199999 -0.36098585 0.14850773 -0.21011156 0.44329697
3.369 -2.0840001 -0.98900002 -0.35261866 0.14500913 -0.19744152 0.42936081
3.391 -2.082 -0.99400002 -0.34983748 0.14841883 -0.19576177 0.42747757
3.3840001 -2.063 -0.99000001 -0.34905988 0.15907739 -0.20090461 0.43302548
3.4170001 -2.069 -0.99800003 -0.32797289 0.15615818 -0.17441615 0.40295482
3.441 -2.0769999 -1.005 -0.29799595 0.14189866 -0.13926348 0.35823336
3.4460001 -2.0650001 -1.005 -0.29893222 0.15309595 -0.14486203 0.36576474
3.421 -2.0350001 -0.99400002 -0.34280661 0.16724432 -0.19807178 0.42979002
3.3929999 -2.003 -0.98299998 -0.34184828 0.17689149 -0.2026743 0.43500313
3.3859999 -1.985 -0.97899997 -0.34204072 0.17642431 -0.20261848 0.43493867
3.3239999 -1.934 -0.95700002 -0.3661631 0.20269595 -0.21296144 0.46958879
3.3440001 -1.931 -0.96100003 -0.3550978 0.206912 -0.20229882 0.45807406
3.3280001 -1.915 -0.95499998 -0.3660787 0.20266686 -0.21283558 0.46945336
3.3280001 -1.901 -0.95300001 -0.3842265 0.20104653 -0.23611045 0.49375892
3.3440001 -1.896 -0.95599997 -0.35733289 0.20409088 -0.20308626 0.45889422
3.3599999 -1.892 -0.95899999 -0.35619533 0.19960733 -0.19886988 0.45416674
3.3610001 -1.878 -0.958 -0.34939274 0.20496556 -0.20090699 0.45216125
3.3510001 -1.859 -0.95300001 -0.35107428 0.19942394 -0.19919619 0.45022458
3.378 -1.867 -0.95999998 -0.35107428 0.19942394 -0.19919619 0.45022458
3.362 -1.844 -0.95300001 -0.34533626 0.20226942 -0.19450176 0.44497302
3.3789999 -1.84 -0.95700002 -0.34533626 0.20226942 -0.19450176 0.44497302
3.3870001 -1.831 -0.958 -0.31404907 0.2531583 -0.19827545 0.44947648
3.3789999 -1.812 -0.95300001 -0.31111881 0.24966516 -0.19710097 0.44494539
4.158 -1.902 -1.16 -0.022810496 0.48306465 -0.48385307 0.68409473
4.1479998 -1.882 -1.155 -0.012463065 0.48327684 -0.48230055 0.6828804
4.1300001 -1.865 -1.149 -0.012394933 0.48218319 -0.46234879 0.66814721
4.1199999 -1.845 -1.1440001 -0.0037540358 0.48215926 -0.46130869 0.66730607
4.131 -1.835 -1.146 -0.0046564746 0.48303977 -0.47527269 0.6776675
4.1279998 -1.818 -1.143 -0.0011503752 0.48184901 -0.47352457 0.67557776
4.125 -1.801 -1.14 0.0032280055 0.47823665 -0.4740968 0.67341554
4.125 -1.786 -1.1390001 0.0032280055 0.47823665 -0.4740968 0.67341554
4.1269999 -1.771 -1.138 0.0032280055 0.47823665 -0.4740968 0.67341554
4.1139998 -1.758 -1.133 0.0071802419 0.47809562 -0.47277144 0.67241341
4.105 -1.739 -1.128 0.0071738707 0.47809565 -0.47276881 0.6724115
4.5050001 -1.753 -1.234 -0.021697078 0.473593 -0.54925418 0.72556269
4.5619998 -1.76 -1.249 -0.010571428 0.475214 -0.53501618 0.71566921
4.5819998 -1.751 -1.2539999 -0.011206914 0.47435945 -0.54527879 0.72282183
4.6440001 -1.767 -1.271 0.010077257 0.47551826 -0.53050512 0.71249902
4.711 -1.775 -1.29 0.010037717 0.47631139 -0.52404583 0.70823532
4.7579999 -1.776 -1.302 0.020579856 0.47461793 -0.52443689 0.70761555
4.789 -1.771 -1.3099999 0.023474989 0.4744983 -0.52380842 0.70715982
4.8319998 -1.77 -1.321 0.0070612296 0.47565877 -0.50764591 0.69570506
4.908 -1.781 -1.342 0.050774064 0.46998921 -0.53619969 0.71482724
5.8049998 -2.0910001 -1.608 -0.033718444 -0.31760916 -0.097502202 0.33394489
5.8000002 -2.0780001 -1.605 -0.044787999 -0.32909304 -0.10705397 0.34895378
5.8330002 -2.0699999 -1.614 -0.015022682 -0.36110669 -0.13281983 0.38505173
5.8540001 -2.0569999 -1.618 -0.010360718 0.34190798 -0.84321541 0.9099564
5.8499999 -2.0339999 -1.615 -0.026761414 -0.34793645 -0.11990318 0.36898878
5.8670001 -2.02 -1.618 -0.013324594 -0.31511429 -0.092091799 0.32856578
5.8590002 -1.9960001 -1.614 -0.050210368 -0.34307075 -0.11490017 0.36526796
5.869 -1.979 -1.615 0.046052437 0.31374216 -0.86203021 0.91850477
5.8590002 -1.966 -1.6109999 -0.054616328 -0.271846 -0.065444231 0.2848967
3.2320001 -3.1110001 -1.1799999 0.46308076 0.21452759 -0.60807407 0.79386395
3.211 -3.072 -1.168 0.46299925 0.21131127 -0.61686355 0.79971331
3.2060001 -3.049 -1.1619999 0.46001843 0.22561495 -0.6159988 0.80123252
3.2060001 -3.029 -1.159 0.460904 0.2166497 -0.6207453 0.80292857
3.243 -2.9790001 -1.156 0.46760562 0.20150703 -0.6202361 0.80246675
3.224 -2.9430001 -1.145 0.47006011 0.19232741 -0.62530482 0.80557585
3.2309999 -2.931 -1.145 0.46827811 0.19059572 -0.62337947 0.80262887
3.223 -2.915 -1.14 0.46803328 0.19218259 -0.62432915 0.80360204
3.237 -2.908 -1.141 0.46728587 0.1852435 -0.63597137 0.81063604
3.223 -2.878 -1.132 0.46693054 0.1753087 -0.64838713 0.81802392
3.2190001 -2.8559999 -1.127 0.46770462 0.17062272 -0.65089786 0.81946796
3.2260001 -2.845 -1.127 0.46954587 0.15962365 -0.65599835 0.82236665
3.2190001 -2.8210001 -1.1210001 0.46751878 0.15549597 -0.66525817 0.82784128
3.1930001 -2.7809999 -1.107 0.47138375 0.12546416 -0.67650032 0.83402431
3.1949999 -2.773 -1.1059999 0.47139755 0.12540849 -0.67649865 0.8340224
3.2 -2.7609999 -1.105 0.47054833 0.12306193 -0.68005127 0.83607996
3.1930001 -2.737 -1.099 0.46909299 0.10908832 -0.69096386 0.84224671
3.207 -2.7320001 -1.101 0.46905765 0.1092005 -0.69099414 0.84226638
3.1919999 -2.7019999 -1.092 0.46875817 0.10291095 -0.69456035 0.8442387
3.1949999 -2.687 -1.09 0.46956098 0.10304902 -0.69262743 0.84311295
3.181 -2.6589999 -1.082 0.46983126 0.092621788 -0.69626904 0.84505075
3.1789999 -2.6489999 -1.079 0.46983126 0.092621788 -0.69626904 0.84505075
3.188 -2.6389999 -1.079 0.47065735 0.091391355 -0.6948216 0.8441847
3.1689999 -2.6070001 -1.069 0.46534044 0.074875906 -0.71187425 0.85376406
3.168 -2.5899999 -1.066 0.46484122 0.073476195 -0.71329415 0.85455519
3.1789999 -2.582 -1.067 0.46637788 0.064792044 -0.7121402 0.8537271
3.1800001 -2.566 -1.064 0.46739486 0.062591031 -0.71045256 0.85271239
3.1919999 -2.5599999 -1.066 0.46849963 0.05895013 -0.70882034 0.85170025
3.1919999 -2.5510001 -1.064 0.46879169 0.057190128 -0.70852625 0.85149622
3.177 -2.523 -1.056 0.46838045 0.036149565 -0.71269459 0.85359281
3.138 -2.477 -1.039 0.47370043 0.019650448 -0.70461941 0.84927422
3.181 -2.4619999 -1.046 0.45956981 -0.010507902 -0.73069596 0.86326784
3.168 -2.444 -1.04 0.46568942 -0.019259455 -0.71731853 0.85544336
3.158 -2.421 -1.033 0.4642688 -0.036743719 -0.72176766 0.85897857
3.1570001 -2.405 -1.03 0.45943126 -0.041864745 -0.73010659 0.86364657
3.174 -2.402 -1.034 0.4549391 -0.0490603 -0.73680305 0.86732644
3.1860001 -2.395 -1.035 0.45008224 -0.058770537 -0.74296415 0.87064558
3.2909999 -2.457 -1.071 0.44499016 -0.026910428 -0.75140625 0.87370002
3.2679999 -2.424 -1.059 0.44436419 -0.052789263 -0.74834359 0.87193137
3.2379999 -2.3940001 -1.0470001 0.44064057 -0.075018972 -0.7534591 0.87606651
3.2579999 -2.3929999 -1.052 0.43631992 -0.075289302 -0.75812674 0.87795198
3.2320001 -2.359 -1.04 0.44276285 -0.095753409 -0.74578673 0.87258554
3.21 -2.3280001 -1.029 0.44327536 -0.11862783 -0.7367456 0.86796296
3.211 -2.313 -1.027 0.44025218 -0.11604295 -0.74114168 0.86981547
3.207 -2.2950001 -1.023 0.43663037 -0.11389706 -0.74836975 0.87388551
3.2079999 -2.2809999 -1.021 0.43595481 -0.11171626 -0.75050348 0.87509578
3.2030001 -2.2620001 -1.017 0.43380326 -0.10965385 -0.75496143 0.87759674
3.197 -2.25 -1.013 0.43814278 -0.11628445 -0.74467033 0.87179416
3.1900001 -2.23 -1.008 0.43801287 -0.11210472 -0.74686879 0.87306112
3.1949999 -2.2190001 -1.008 0.4375785 -0.11240572 -0.74746513 0.87339228
3.2179999 -2.22 -1.013 0.43337518 -0.11379913 -0.7558198 0.87865114
3.217 -2.204 -1.01 0.43438524 -0.12355525 -0.74964082 0.87516731
3.2219999 -2.1930001 -1.01 0.43182054 -0.11982631 -0.75561297 0.8785091
3.223 -2.1719999 -1.006 0.43118665 -0.12471777 -0.75430924 0.87775785
3.158 -2.1140001 -0.98100001 0.41648179 -0.11439239 -0.74457675 0.86077714
3.2579999 -2.165 -1.0140001 0.43275061 -0.12402765 -0.75209522 0.87652904
3.2390001 -2.138 -1.005 0.43636838 -0.12635732 -0.74655169 0.87391245
3.2130001 -2.1070001 -0.99400002 0.42494714 -0.1281676 -0.72135055 0.84696734
3.221 -2.098 -0.99400002 0.42335042 -0.1290219 -0.72385168 0.84843004
3.2279999 -2.095 -0.995 0.4093391 -0.11866259 -0.7541945 0.86628437
3.3510001 -2.1589999 -1.035 0.43032658 -0.13370185 -0.74777603 0.87305564
3.316 -2.122 -1.021 0.43312019 -0.1313678 -0.74596494 0.87253326
3.28 -2.085 -1.006 0.42453527 -0.14651519 -0.7519328 0.87584239
3.388 -2.1370001 -1.041 -0.38057548 0.14129443 -0.23204511 0.46759677
3.3859999 -2.122 -1.038 -0.37018842 0.14775541 -0.22063649 0.4555783
3.4549999 -2.1489999 -1.059 -0.31253523 0.12172248 -0.14433485 0.36513996
3.4400001 -2.1329999 -1.053 -0.33355772 0.13837792 -0.17168957 0.39985812
3.4449999 -2.1210001 -1.053 -0.33803239 0.14619207 -0.17977127 0.40982401
3.4119999 -2.086 -1.039 -0.36038896 0.15048064 -0.21004727 0.44344616
3.4089999 -2.0699999 -1.036 -0.35937136 0.15901203 -0.21395713 0.44744861
3.4289999 -2.0669999 -1.04 -0.35897321 0.1538915 -0.20942208 0.4431726
3.4170001 -2.0450001 -1.034 -0.35431069 0.16749777 -0.21121415 0.44519994
3.3599999 -1.99 -1.012 -0.35713416 0.18367372 -0.22672987 0.46118033
3.3770001 -1.9859999 -1.015 -0.35730264 0.18223709 -0.22596508 0.46036479
3.3959999 -1.983 -1.02 -0.35559076 0.19129975 -0.23005909 0.46472311
3.362 -1.949 -1.006 -0.35198247 0.20279406 -0.2338044 0.46870202
3.3380001 -1.9069999 -0.99400002 -0.39250886 0.20433366 -0.25097358 0.50872701
3.345 -1.898 -0.995 -0.36796188 0.2182419 -0.22640648 0.48403034
3.3469999 -1.892 -0.99400002 -0.36887789 0.21701626 -0.22669423 0.48431107
3.369 -1.89 -1 -0.3589673 0.20817161 -0.21464649 0.46718952
3.293 -1.835 -0.972 -0.38916537 0.19767545 -0.24867079 0.50235689
3.3710001 -1.864 -0.99599999 -0.33876541 0.25695035 -0.22957551 0.48320845
3.3989999 -1.865 -1.0039999 -0.27668318 0.2898249 -0.22979349 0.46190596
3.415 -1.86 -1.007 -0.24614289 0.31499758 -0.22736591 0.45989677
3.2460001 -1.756 -0.94999999 -0.37473172 0.22847435 -0.26075232 0.5105058
3.4070001 -1.835 -1.001 -0.26618657 0.33297798 -0.23087502 0.48480192
3.3559999 -1.794 -0.98299998 -0.34208328 0.27765131 -0.26156878 0.51237631
3.8529999 -1.784 -1.1109999 0.0094928406 0.46147507 -0.35547391 0.58258992
3.836 -1.7690001 -1.105 0.0033286358 0.46007091 -0.35068437 0.57849449
3.852 -1.762 -1.108 0.0090005081 0.4617095 -0.35622701 0.58322752
3.849 -1.7460001 -1.105 0.0090005081 0.4617095 -0.35622701 0.58322752
3.858 -1.735 -1.1059999 0.016049365 0.4652288 -0.36914754 0.59410882
3.902 -1.74 -1.118 0.014498948 0.46782747 -0.38049483 0.60319901
3.9660001 -1.753 -1.137 0.025929002 0.4689644 -0.39627576 0.61451966
4.072 -1.784 -1.169 0.02265593 0.47882941 -0.4808073 0.67894518
4.2010002 -1.832 -1.209 -0.0017528292 0.48050857 -0.51479745 0.7042073
4.1560001 -1.7970001 -1.193 0.011716519 0.4804073 -0.50686646 0.69845688
4.1630001 -1.785 -1.193 0.0091678407 0.48050389 -0.50568146 0.69762582
4.1669998 -1.771 -1.193 0.0063842479 0.47877789 -0.50675476 0.69718677
4.1620002 -1.7539999 -1.189 0.013253489 0.47858918 -0.50680733 0.69719219
4.1690001 -1.7410001 -1.1900001 0.010704811 0.47868577 -0.50562233 0.69635379
4.198 -1.738 -1.197 -0.00021585915 0.47869045 -0.51473832 0.70292258
4.2199998 -1.739 -1.2029999 -0.003303851 0.4783169 -0.51375687 0.70195735
4.2610002 -1.74 -1.214 -0.0098916367 0.48004115 -0.5162046 0.7049855
4.3150001 -1.7460001 -1.229 -0.028904052 0.47974032 -0.5089047 0.69997871
4.3540001 -1.7460001 -1.24 -0.033766508 0.47984704 -0.51266587 0.70300758
4.3870001 -1.743 -1.248 -0.023996245 0.47554621 -0.503214 0.69278014
4.4239998 -1.7410001 -1.258 -0.035801094 0.47508362 -0.5111081 0.69872576
4.4889998 -1.75 -1.277 -0.018848469 0.47580868 -0.51942158 0.70466155
4.5110002 -1.75 -1.283 -0.012597954 0.4753665 -0.53198814 0.71354288
4.5549998 -1.751 -1.295 -0.00033932808 0.47579297 -0.5283463 0.71100551
4.598 -1.75 -1.306 0.0057918853 0.47638631 -0.51463288 0.70130199
4.6589999 -1.757 -1.324 0.0018692042 0.47573662 -0.52845019 0.71104747
3.161 -3.0209999 -1.179 0.46665782 0.20895974 -0.61211598 0.79757112
3.1570001 -2.9979999 -1.173 0.46787164 0.20855179 -0.60794026 0.79497743
3.175 -2.9960001 -1.177 0.46784928 0.20861545 -0.60791749 0.79496354
3.1470001 -2.6730001 -1.107 0.47690743 0.095252723 -0.67797488 0.83436424
3.152 -2.661 -1.105 0.47690743 0.095252723 -0.67797488 0.83436424
3.1470001 -2.589 -1.091 0.48034468 0.063549504 -0.67997032 0.83494264
3.145 -2.5710001 -1.087 0.48167747 0.056054145 -0.67826843 0.83378851
3.1359999 -2.49 -1.0700001 0.49539828 0.019078355 -0.64725548 0.81530553
3.1229999 -2.4630001 -1.062 0.49359831 -0.0022189654 -0.65178502 0.81759888
3.154 -2.4319999 -1.063 0.48233035 -0.032358706 -0.67592764 0.83100414
3.1860001 -2.425 -1.0700001 0.47323117 -0.047115177 -0.70012468 0.84636998
3.171 -2.398 -1.061 0.47468886 -0.058770321 -0.6930058 0.84204543
3.177 -2.3870001 -1.0599999 0.4723168 -0.072155915 -0.69332504 0.84201503
3.1630001 -2.3610001 -1.052 0.46588665 -0.095030196 -0.7041316 0.84963661
3.1700001 -2.358 -1.054 0.46392745 -0.096948169 -0.70744616 0.85153252
3.1600001 -2.335 -1.0470001 0.47147593 -0.10587113 -0.68560064 0.83877677
3.155 -2.316 -1.043 0.4666779 -0.11371274 -0.69205332 0.84241122
3.1700001 -2.312 -1.046 0.45764226 -0.10920526 -0.71419859 0.85524374
3.1730001 -2.299 -1.044 0.45348603 -0.12089869 -0.71624678 0.85631508
3.1849999 -2.2920001 -1.046 0.447308 -0.10989919 -0.73377371 0.86636376
3.181 -2.2809999 -1.043 0.44491005 -0.11245062 -0.73688376 0.86809433
3.1819999 -2.267 -1.041 0.45023459 -0.12022079 -0.72300696 0.86017632
3.1860001 -2.2550001 -1.039 0.44744748 -0.11735601 -0.7274397 0.86206162
3.2 -2.25 -1.0420001 0.44500661 -0.10978393 -0.73571974 0.86681426
3.198 -2.233 -1.039 0.44653583 -0.11635786 -0.7296648 0.86333311
3.221 -2.234 -1.045 0.44165355 -0.12428925 -0.7367667 0.86794633
