# .PCD v0.7 - Point Cloud Data file format
VERSION 0.7
FIELDS x y z normal_x normal_y normal_z curvature
SIZE 4 4 4 4 4 4 4
TYPE F F F F F F F
COUNT 1 1 1 1 1 1 1
WIDTH 445
HEIGHT 1
VIEWPOINT 0 0 0 1 0 0 0
POINTS 445
DATA ascii
-19.452 9.0930004 -0.875 0.00073920982 0.56901795 -0.7997793 0.98154414
-19.570999 9.1110001 -0.88 0.015173861 0.57809663 -0.7925626 0.98111236
-19.721001 9.1049995 -0.88700002 0.0070815748 0.59443283 -0.77253628 0.97478861
-19.851 9.0900002 -0.89300001 0.012763948 0.60862666 -0.7570076 0.97141641
-20.018 9.0900002 -0.89999998 -0.02509925 0.61443412 -0.74408931 0.96531248
-20.158001 9.0769997 -0.90700001 -0.014540071 0.61800641 -0.74026603 0.96443617
-20.256001 9.0439997 -0.91000003 -0.013883904 0.62045753 -0.73330086 0.9606719
-20.408001 9.0360003 -0.917 -0.01652202 0.63385248 -0.71657252 0.95682716
-20.511999 9.0430002 -0.92199999 -0.0114415 0.6465587 -0.70316184 0.95530397
-20.617001 9.0120001 -0.926 -0.013790761 0.65232635 -0.69154394 0.95076436
-20.746 8.9910002 -0.93199998 -0.03722373 0.66979432 -0.64708847 0.93205875
-21.448999 8.9359999 -0.963 -0.016953509 0.57776183 -0.78592932 0.97559267
-21.586 8.9139996 -0.96899998 -0.0056108632 0.59682709 -0.76484203 0.97016358
-21.724001 8.8909998 -0.97500002 0.0086391363 0.61179459 -0.73527646 0.95655566
-21.917 8.8900003 -0.98400003 0.0077518895 0.64040309 -0.71732605 0.96163034
-22.104 8.8850002 -0.99299997 0.054545257 0.64445555 -0.7085706 0.95935935
-22.250999 8.8620005 -0.99900001 0.010789553 0.62022364 -0.72739398 0.95597899
-15.434 9.1470003 -0.81099999 0.13789856 0.49340141 -0.82997763 0.97535831
-15.497 9.151 -0.815 0.14642482 0.52271366 -0.79929262 0.96619797
-15.756 9.2379999 -0.82999998 0.12913567 0.50961483 -0.81581342 0.97053325
-15.804 9.1990004 -0.83099997 0.13256586 0.52424777 -0.80003297 0.96564078
-15.907 9.1929998 -0.83600003 0.10632907 0.53021193 -0.79494101 0.96143734
-15.97 9.1630001 -0.838 0.09535864 0.5259335 -0.79980195 0.961968
-16.080999 9.1590004 -0.84299999 0.093214743 0.52266234 -0.79622102 0.95699155
-16.215 9.1680002 -0.85000002 0.11277814 0.5316481 -0.78610599 0.95568365
-16.282 9.1719999 -0.85399997 0.10196402 0.54071218 -0.77540576 0.95079988
-16.371 9.1549997 -0.85799998 0.088881321 0.55455291 -0.76477295 0.94884479
-16.518999 9.1700001 -0.86500001 0.065427035 0.55444294 -0.76311004 0.94552875
-16.573999 9.1330004 -0.86699998 0.056485616 0.56367493 -0.74926883 0.93932092
-16.65 9.1059999 -0.87 0.045916643 0.57088464 -0.73693609 0.93332332
-16.757 9.0970001 -0.875 0.035748236 0.57220566 -0.73442006 0.93170279
-16.836 9.0719995 -0.87800002 0.033891626 0.57613367 -0.72983038 0.93044668
-16.947001 9.0979996 -0.88499999 0.052901663 0.58559543 -0.72749794 0.93540037
-17.062 9.0900002 -0.88999999 0.054157276 0.59717715 -0.70912099 0.92865825
-17.209 9.099 -0.898 0.018278396 0.61661667 -0.69637573 0.93031681
-17.334 9.0959997 -0.90399998 -0.006518295 0.61724299 -0.68584335 0.92272019
-17.409 9.066 -0.90700001 0.019214936 0.5492245 -0.79214346 0.96410996
-17.476 9.0310001 -0.90899998 0.027092125 0.60712552 -0.68679959 0.91707635
-17.594999 9.0229998 -0.91500002 0.040216982 0.56721896 -0.77306962 0.959683
-17.705 9.0450001 -0.921 0.064329937 0.53678632 -0.80761003 0.97185999
-17.986 9.0469999 -0.935 0.028806586 0.53864825 -0.8157481 0.97796559
-18.1 9.033 -0.94099998 0.017221231 0.56282353 -0.79118121 0.97109973
-18.207001 9.0150003 -0.94599998 0.025415549 0.58016181 -0.7752074 0.96859699
-18.336 9.007 -0.95200002 0.015089562 0.57636493 -0.77991313 0.96989107
-18.853001 9.0059996 -0.97799999 -0.0016326578 0.57416195 -0.78257155 0.97060955
-18.938 8.974 -0.98199999 -0.025448732 0.60004222 -0.74716747 0.95862275
-19.059999 8.9580002 -0.98799998 -0.035368435 0.62458962 -0.71751654 0.95194173
-19.233999 8.967 -0.99699998 -0.010889741 0.63440776 -0.70646995 0.94957441
-19.322001 8.934 -1.001 -0.0011086441 0.62946945 -0.7195617 0.95603454
-19.468 8.9650002 -1.0089999 0.021013578 0.67558563 -0.62181163 0.91842651
-19.618 8.9589996 -1.017 -0.0010795407 0.66757786 -0.63662899 0.92247379
-19.790001 8.9630003 -1.025 0.019267071 0.66192406 -0.65806592 0.93357664
-19.92 8.9469995 -1.0319999 -0.0035394202 0.6733551 -0.63039094 0.92239493
-20.063999 8.9359999 -1.039 -0.024680713 0.67439049 -0.62089443 0.91701776
-20.226999 8.9329996 -1.0470001 -0.0087891892 0.67531967 -0.60747969 0.90838617
-20.319 8.8979998 -1.051 -0.016653456 0.67279953 -0.62441421 0.91805756
-20.497999 8.9379997 -1.061 -0.0248648 0.68029702 -0.60971916 0.91388172
-20.665001 8.934 -1.0700001 -0.017004436 0.67909545 -0.61916393 0.9191429
-20.812 8.9200001 -1.077 -0.036146693 0.6714915 -0.61459422 0.91100687
-20.936001 8.8950005 -1.0829999 -0.019847171 0.67483157 -0.60577142 0.90705597
-21.056 8.868 -1.089 -0.035875849 0.68903416 -0.5673849 0.89329773
-21.254999 8.8739996 -1.099 -0.035591193 0.68955326 -0.53958797 0.87630224
-21.426001 8.8669996 -1.108 -0.023872823 0.65889192 -0.63024932 0.91209799
-21.525 8.868 -1.113 -0.0048397356 0.66644287 -0.62685746 0.9149425
-21.677 8.8509998 -1.1210001 0.0014452811 0.66638374 -0.62601465 0.91431051
-21.865 8.8479996 -1.131 0.010406978 0.66515243 -0.62893808 0.91547757
-22.069 8.8500004 -1.141 0.013224355 0.64503229 -0.65861177 0.92196041
-15.067 9.0240002 -0.884 0.1168221 -0.20227821 -0.10994589 0.25817046
-15.149 9.0089998 -0.88800001 0.10068497 0.51278329 -0.80858791 0.96275568
-15.218 8.9849997 -0.89099997 0.10477782 0.52982533 -0.7816543 0.95009297
-15.365 9.007 -0.89899999 0.10341679 0.56185913 -0.73828399 0.93351161
-15.455 9.0270004 -0.90499997 0.14353281 0.56894267 -0.73191082 0.93807828
-15.584 9.0360003 -0.912 0.13597222 0.56528264 -0.73690724 0.93865073
-15.687 9.0299997 -0.917 0.12876664 0.5716188 -0.7242645 0.93160504
-15.822 9.0419998 -0.92500001 0.10993402 0.56785262 -0.73277092 0.93353915
-15.931 9.0369997 -0.93000001 0.10193104 0.56860131 -0.73192698 0.93242401
-16.034 9.0290003 -0.93599999 0.10184254 0.57576525 -0.7153039 0.92387074
-16.165001 9.0360003 -0.94300002 0.11265731 0.57772589 -0.71766698 0.92817283
-16.242001 9.0459995 -0.94700003 0.10361817 0.58502406 -0.7060774 0.92278659
-16.298 9.0100002 -0.949 0.10328781 0.5861789 -0.70242184 0.92069024
-16.479 9.0419998 -0.95999998 0.072129861 0.58564901 -0.69460934 0.91141081
-16.591 9.0360003 -0.96600002 0.05074935 0.59572089 -0.69673049 0.91809165
-16.679001 9.0159998 -0.97000003 0.054002527 0.60060269 -0.68405628 0.91190612
-16.757 8.9899998 -0.97399998 0.046233825 0.60467732 -0.67467326 0.90716934
-16.891001 8.993 -0.98100001 0.036872976 0.6016053 -0.67290324 0.90337557
-16.945999 8.9879999 -0.98400003 0.035369646 0.60166162 -0.66054219 0.89418328
-17.056999 8.9790001 -0.99000001 0.04000935 0.59469116 -0.66795814 0.89522421
-17.174999 8.9720001 -0.99599999 0.031103145 0.60709208 -0.65864408 0.89629245
-17.306 8.9709997 -1.003 0.016823672 0.60875887 -0.64891815 0.88992429
-17.402 8.9510002 -1.008 0.0060194377 0.6368618 -0.60509324 0.87850273
-17.500999 8.9329996 -1.013 0.017318375 0.63675892 -0.60157406 0.87615824
-17.627001 8.927 -1.02 0.024802918 0.63824695 -0.59205502 0.87092108
-17.745001 8.9510002 -1.027 0.036069311 0.65103245 -0.59979415 0.88594431
-17.882 8.9499998 -1.034 0.037982721 0.65426993 -0.59237719 0.88341528
-18.059999 8.9680004 -1.045 0.050077476 0.61500388 -0.69157612 0.92683065
-18.172001 8.9530001 -1.05 0.010500035 0.63169932 -0.68411756 0.93122023
-18.281 8.9350004 -1.056 -0.015452208 0.65489638 -0.63013834 0.90895677
-18.448999 8.9449997 -1.066 0.040914871 0.6517843 -0.65632093 0.92588013
-18.517 8.9060001 -1.068 0.043348663 0.67102116 -0.59925699 0.9006983
-18.599001 8.9099998 -1.073 0.027430901 0.66724682 -0.61556375 0.90823424
-18.747999 8.9090004 -1.081 0.016978018 0.61828172 -0.72170758 0.95048535
-18.973 8.9420004 -1.095 -0.0085604331 0.62767297 -0.70853877 0.94661176
-19.120001 8.9379997 -1.103 -0.016458899 0.65901089 -0.64200974 0.92018628
-19.23 8.9160004 -1.108 0.0043840557 0.66322994 -0.63272667 0.91664398
-19.334 8.8900003 -1.114 0.032991782 0.66396725 -0.60535294 0.89910686
-19.521999 8.9020004 -1.125 0.013144154 0.67541194 -0.6074369 0.90847874
-19.617001 8.9090004 -1.13 0.0096401842 0.68784302 -0.58556724 0.90338802
-19.849001 8.9379997 -1.1440001 0.016134497 0.67877173 -0.60629344 0.91026539
-19.969999 8.9169998 -1.15 -0.0067122388 0.67241639 -0.60529476 0.90474892
-20.166 8.9289999 -1.1619999 -0.0046397527 0.6741631 -0.58467716 0.89239275
-20.273001 8.8999996 -1.1670001 0.006298461 0.6772157 -0.58086801 0.8922267
-20.392 8.8760004 -1.173 -0.0067957863 0.66753733 -0.57884443 0.88357973
-20.620001 8.8979998 -1.187 0.00089122658 0.6870786 -0.56667238 0.89061517
-20.702999 8.8950005 -1.191 -0.024889745 0.68723094 -0.55942124 0.88648629
-20.950001 8.9230003 -1.206 -0.011429024 0.69416356 -0.51214743 0.86272162
-21.052999 8.8889999 -1.211 -0.0061944351 0.70184231 -0.48820984 0.85496777
-21.162001 8.8559999 -1.216 -0.03225702 0.68545705 -0.49034891 0.84340614
-21.308001 8.8389997 -1.224 -0.049433298 0.67111349 -0.46552059 0.81825817
-21.493999 8.8369999 -1.235 -0.036705811 0.6656903 -0.46994179 0.81568146
-21.674 8.8310003 -1.245 -0.017365396 0.66516018 -0.44334877 0.79956096
-21.792999 8.8389997 -1.252 -0.018072318 0.67802805 -0.42386493 0.79981881
-21.995001 8.8409996 -1.2640001 0.008003803 0.66450405 -0.41279992 0.78232569
-22.145 8.8199997 -1.272 0.043337792 0.66275328 -0.43606716 0.79452795
-14.552 8.9659996 -0.97399998 0.13300675 0.5095762 -0.80812085 0.96458173
-14.636 8.9540005 -0.97799999 0.1450927 0.53254843 -0.783337 0.95826745
-14.724 8.9449997 -0.98299998 0.13694388 0.51855856 -0.80069637 0.96372783
-14.948 8.9209995 -0.99599999 0.10767549 0.56218123 -0.73999327 0.93553823
-15.077 8.934 -1.0039999 0.12743637 0.55228406 -0.75367093 0.94301516
-15.167 8.9230003 -1.0089999 0.12982608 0.56616431 -0.72255665 0.92708415
-15.231 8.8970003 -1.011 0.12522945 0.56798911 -0.7198565 0.92546606
-15.335 8.8929996 -1.018 0.13446245 0.58309519 -0.70035744 0.92118442
-15.508 8.9610004 -1.03 0.12762111 0.59043592 -0.68730414 0.91503477
-15.586 8.941 -1.034 0.13745876 0.59158683 -0.69256246 0.92114747
-15.711 8.948 -1.0420001 0.12912351 0.58867574 -0.69655603 0.92108756
-15.829 8.9490004 -1.049 0.11331487 0.58602202 -0.70004439 0.91995883
-15.941 8.9469995 -1.056 0.10451746 0.59773254 -0.67715913 0.90925938
-16.030001 8.9300003 -1.0599999 0.094955154 0.59965104 -0.67317486 0.90651101
-16.169001 8.9420004 -1.069 0.11315911 0.60243058 -0.6602208 0.90089905
-16.284 8.9729996 -1.077 0.11440946 0.60309774 -0.66468197 0.90477538
-16.407 8.9729996 -1.085 0.097712509 0.60654551 -0.6517818 0.89569229
-16.509001 8.9619999 -1.09 0.077539146 0.60787696 -0.64765191 0.89161634
-16.625 8.9569998 -1.097 0.059822813 0.60912544 -0.62358153 0.87376571
-16.728001 8.9460001 -1.103 0.039102219 0.60823226 -0.62513739 0.87308204
-16.806999 8.9200001 -1.107 0.030222049 0.60689592 -0.60422075 0.85692406
-16.941 8.9230003 -1.115 0.021494636 0.60846496 -0.59634542 0.85224378
-17.017 8.9289999 -1.12 0.032881312 0.61998546 -0.58303988 0.85170341
-17.186001 8.9499998 -1.131 0.047404073 0.62936282 -0.56382203 0.8463096
-17.239 8.908 -1.133 0.047367055 0.62846392 -0.56019408 0.8432247
-17.322001 8.882 -1.137 0.033140037 0.62656975 -0.54665089 0.83217496
-17.489 8.8990002 -1.148 0.019692052 0.64245641 -0.53966904 0.83927393
-17.641001 8.9069996 -1.158 0.024867635 0.64014149 -0.54868037 0.84347475
-17.754 8.8940001 -1.164 0.037198592 0.64257246 -0.53962976 0.83993059
-17.886 8.9259996 -1.173 0.056139983 0.66541487 -0.49373183 0.83048165
-17.990999 8.9069996 -1.179 0.050644144 0.67242479 -0.46676895 0.82011783
-18.169001 8.9250002 -1.191 0.0036770254 0.6802038 -0.50655818 0.8481108
-18.268999 8.9029999 -1.196 -0.010044053 0.67812341 -0.52049166 0.85490572
-18.457001 8.9230003 -1.2079999 -0.015578076 0.67896283 -0.52128273 0.85613602
-18.499001 8.8719997 -1.209 0.0021354109 0.67970663 -0.52305907 0.85766923
-18.635 8.8649998 -1.2180001 0.032165635 0.6706847 -0.57730347 0.88551223
-18.854 8.934 -1.233 0.040515441 0.68442786 -0.52917689 0.86608958
-19.042999 8.9499998 -1.2460001 -0.015430829 0.69064355 -0.51025295 0.85882753
-19.105 8.9060001 -1.248 -0.014481073 0.6869095 -0.45651552 0.82490045
-19.308001 8.9280005 -1.261 -0.0075294254 0.68322629 -0.42314991 0.80368567
-19.389 8.8909998 -1.265 -0.013681514 0.68233156 -0.41534558 0.79892141
-19.488001 8.8620005 -1.271 -0.021146577 0.67956251 -0.44046634 0.81010056
-19.702999 8.8859997 -1.285 -0.010100232 0.6849671 -0.43532667 0.81165957
-19.823999 8.9029999 -1.293 0.0058692014 0.68496144 -0.43476638 0.81131279
-20.038 8.9239998 -1.307 -0.028963467 0.68799651 -0.42252374 0.8079012
-20.113001 8.882 -1.311 -0.043014187 0.66497076 -0.45165861 0.8050043
-20.32 8.8970003 -1.324 -0.022271151 0.6789369 -0.42447758 0.80101967
-20.43 8.8690004 -1.33 -0.057710443 0.66710818 -0.46096042 0.81292576
-20.625999 8.8780003 -1.3430001 0.016193861 0.6708734 -0.42814732 0.79601729
-20.806 8.8780003 -1.354 -0.0037468136 0.66903043 -0.41904411 0.78943884
-20.759001 8.7810001 -1.349 0.02034197 0.66136098 -0.42252523 0.78507304
-21.146 8.9060001 -1.377 -0.019476179 0.63639456 -0.27725711 0.69444144
-21.320999 8.901 -1.388 -0.074262962 0.62626791 -0.26847279 0.6854226
-21.424 8.8649998 -1.393 -0.038576584 0.64090407 -0.29481655 0.70651466
-21.603001 8.8599997 -1.404 -0.052615583 0.65221107 -0.36215365 0.74786556
-21.742001 8.8380003 -1.413 -0.052743979 0.65836549 -0.43603972 0.79142761
-21.936001 8.8369999 -1.425 0.051222675 0.65201175 -0.3908014 0.76188499
-14.633 8.9560003 -1.063 0.14483343 0.5515306 -0.7592591 0.94954574
-14.769 8.9750004 -1.072 0.12434534 0.58627462 -0.70767313 0.92735159
-14.852 8.9610004 -1.077 0.090493232 0.58278263 -0.70367533 0.91814137
-14.933 8.9779997 -1.082 0.11067665 0.5810436 -0.70830429 0.92279792
-15.076 8.9989996 -1.092 0.12516214 0.55526018 -0.75319719 0.94407916
-15.118 8.96 -1.0930001 0.12539381 0.58215994 -0.70566499 0.92336172
-15.223 8.9580002 -1.1 0.12488693 0.58538592 -0.69721437 0.91890222
-15.341 8.9619999 -1.108 0.14577943 0.58563304 -0.69281548 0.91880953
-15.396 8.9300003 -1.11 0.14528945 0.5979172 -0.6666525 0.9072153
-15.516 8.934 -1.118 0.14609408 0.6114502 -0.63338268 0.89240593
-15.61 8.9549999 -1.125 0.10829861 0.62607014 -0.60891986 0.88004309
-15.771 8.9820004 -1.136 0.12546664 0.58810657 -0.69461405 0.91874909
-15.855 8.9639997 -1.141 0.11607847 0.60105795 -0.66811025 0.90615463
-15.993 8.9750004 -1.15 0.10212354 0.60756981 -0.65417099 0.8986156
-16.072001 8.9530001 -1.154 0.11525502 0.61102045 -0.63777423 0.89072198
-16.204 8.96 -1.163 0.11561186 0.60744119 -0.64641654 0.89454192
-16.322001 8.9580002 -1.171 0.10727933 0.61084974 -0.63594663 0.88829863
-16.372999 8.9530001 -1.174 0.090372898 0.61711639 -0.61743063 0.87762207
-16.511 8.9610004 -1.183 0.081748337 0.61512059 -0.61127263 0.87103981
-16.648001 8.9680004 -1.192 0.046715938 0.61598957 -0.59842658 0.86008132
-16.702999 8.9289999 -1.194 0.049752858 0.61557919 -0.57890826 0.84649152
-16.826 8.927 -1.202 0.033969209 0.61317408 -0.57600987 0.84197605
-16.969 8.934 -1.212 0.033824205 0.61802036 -0.54521424 0.82483441
-17.08 8.9239998 -1.219 0.04230826 0.61948222 -0.53834939 0.82180792
-17.233999 8.9700003 -1.23 0.03640433 0.63057435 -0.5487442 0.83670157
-17.309999 8.941 -1.234 0.026487939 0.62759376 -0.53762698 0.82681215
-17.464001 8.9510002 -1.245 0.016589655 0.64617658 -0.48890984 0.8104642
-17.582001 8.9420004 -1.252 0.023754047 0.64490831 -0.4580999 0.79140794
-17.677999 8.9200001 -1.258 0.035882447 0.65846795 -0.46628118 0.8076421
-17.836 8.9300003 -1.268 0.056850087 0.65892863 -0.46323887 0.8074708
-17.931999 8.9069996 -1.274 0.058627591 0.66153634 -0.45849234 0.80702096
-18.070999 8.941 -1.284 0.0401842 0.66972011 -0.43705326 0.80072176
-18.184 8.9250002 -1.291 0.0036210828 0.68173969 -0.45967314 0.82224178
-18.334999 8.9280005 -1.301 -0.046321422 0.67614979 -0.48222673 0.83178532
-18.504999 8.9390001 -1.313 -0.030333161 0.68010366 -0.49308145 0.84058934
-18.559999 8.8940001 -1.3150001 -0.0071417317 0.68451077 -0.49241021 0.84325194
-18.691 8.8839998 -1.324 0.012117671 0.6812371 -0.51613486 0.85476667
-18.919001 8.9189997 -1.34 0.043779377 0.67909622 -0.48175442 0.83377194
-19.084 8.9239998 -1.351 0.030444955 0.67915308 -0.49759945 0.84248507
-19.433001 9.0489998 -1.378 0.021397451 0.67830777 -0.35080779 0.7639538
-19.527 9.0179996 -1.3839999 -0.027621403 0.68316603 -0.38103214 0.78272873
-19.468 8.9169998 -1.376 -0.0097875614 0.6804114 -0.45026073 0.81595969
-19.601 8.9040003 -1.385 -0.016242294 0.66920757 -0.45586357 0.80988526
-19.836 8.9350004 -1.402 -0.0042042956 0.67629623 -0.46727547 0.82203448
-19.936001 8.9040003 -1.408 -0.022251267 0.66885316 -0.49828786 0.83435631
-20.125999 8.9130001 -1.421 -0.0039669746 0.66687697 -0.45804381 0.80903941
-20.277 8.9420004 -1.432 -0.036416374 0.66485751 -0.47170109 0.81600463
-20.440001 8.9370003 -1.442 0.0029682887 0.66926616 -0.43235719 0.79678023
-20.823 9.0270004 -1.471 0.0083393455 0.6770587 -0.45936266 0.81822497
-20.593 8.8500004 -1.45 0.016527088 0.67252922 -0.46493784 0.81776273
-20.782 8.8540001 -1.4630001 -0.0031798328 0.66415155 -0.47216341 0.81488997
-21.212999 8.9580002 -1.495 -0.076437771 0.65496999 -0.34565035 0.744515
-21.355 8.9390001 -1.505 0.0093738716 0.6532163 -0.35187969 0.74202335
-21.538 8.9759998 -1.518 -0.10034537 0.64682794 -0.37361011 0.75368434
-21.736 8.9779997 -1.5319999 -0.0075632725 0.66092938 -0.40704396 0.77625358
-21.860001 8.9490004 -1.539 0.0858915 0.65008265 -0.41080654 0.77378732
-22.125 8.9759998 -1.558 0.14353268 0.61725491 -0.30776453 0.70450282
-22.365999 8.9919996 -1.575 0.097396582 0.41805071 -0.048665494 0.43199632
-15.271 8.96 -1.219 0.11000078 0.63971931 -0.54656613 0.84857261
-15.382 8.96 -1.227 0.12485453 0.63407767 -0.54707932 0.84672242
-15.489 8.9580002 -1.234 0.13200364 0.638987 -0.54742742 0.85170776
-15.533 8.9180002 -1.2359999 0.13317269 0.63388908 -0.54933387 0.84930444
-15.694 8.9449997 -1.248 0.10205102 0.63803917 -0.5496577 0.84831125
-15.85 9.0019999 -1.261 0.10583109 0.63457233 -0.55803943 0.85163975
-15.854 8.9379997 -1.2589999 0.105809 0.6346519 -0.5580197 0.85168338
-16.033001 8.9729996 -1.273 0.10328151 0.63565433 -0.55474293 0.84997839
-16.152 8.9729996 -1.281 0.098285705 0.63331854 -0.55107498 0.84524322
-16.187 8.9259996 -1.2819999 0.086959846 0.62851298 -0.55355299 0.8420282
-16.365 8.9580002 -1.296 0.074679933 0.62060463 -0.56056201 0.83961713
-16.427 8.9250002 -1.299 0.08161062 0.62237448 -0.54549122 0.83160746
-16.488001 8.9239998 -1.303 0.080405764 0.61986709 -0.53509849 0.82281876
-16.621 8.9289999 -1.313 0.053295251 0.61823958 -0.52965188 0.81583804
-16.788 8.9510002 -1.325 0.05324902 0.62225628 -0.49482602 0.79680055
-16.878 8.9309998 -1.331 0.049884446 0.62171388 -0.49936947 0.79899091
-16.966999 8.9110003 -1.337 0.045277681 0.62170279 -0.5006876 0.79953265
-17.122999 8.9239998 -1.348 0.042745929 0.62788254 -0.50688761 0.80808336
-17.273001 8.9329996 -1.359 0.056656912 0.62222093 -0.48913348 0.7934863
-17.497 8.9799995 -1.377 0.031537693 0.65648335 -0.41834632 0.77908838
-17.524 8.9589996 -1.378 0.048329659 0.65108538 -0.41212347 0.772071
-17.601999 8.9300003 -1.382 0.038134128 0.65059072 -0.41459373 0.77240562
-17.752001 8.9359999 -1.393 0.039107572 0.65563905 -0.40729403 0.77283919
-17.841 8.9110003 -1.399 0.041389711 0.65874422 -0.44448978 0.79575634
-18.149 8.9940004 -1.424 -0.033340875 0.67615098 -0.41552714 0.79432648
-18.791 9.2390003 -1.479 0.35949063 0.30470598 -0.12231845 0.48686862
-18.436001 8.993 -1.4450001 -0.10851061 0.66650385 -0.47770685 0.82716733
-18.461 8.9689999 -1.446 -0.070354581 0.67463976 -0.48885438 0.83610237
-18.468 8.901 -1.444 -0.060267419 0.66152501 -0.50489211 0.83436418
-18.555 8.8710003 -1.449 -0.012704024 0.66691172 -0.51112962 0.84034878
-18.684999 8.8620005 -1.4579999 0.040810242 0.66412109 -0.52666891 0.84858847
-19.129 8.9989996 -1.495 0.080197506 0.67143703 -0.52795202 0.85790014
-19.441 9.0719995 -1.52 0.042265411 0.68623573 -0.48822889 0.84325159
-19.726 9.1300001 -1.543 -0.057140481 0.6843071 -0.51528013 0.85851896
-19.923 9.1079998 -1.556 -0.096849695 0.6371839 -0.66394174 0.92531174
-19.927999 9.0340004 -1.554 0.014979517 0.67060357 -0.51679128 0.84676254
-20.358 9.1529999 -1.59 -0.069138512 0.37646759 -0.015701294 0.38308549
-20.194 9.0019999 -1.573 -0.029656637 0.64635527 -0.60842979 0.8881675
-20.32 8.9829998 -1.581 -0.0088970717 0.65277916 -0.60181373 0.88790739
-20.671 9.0609999 -1.61 -0.14199869 0.64996123 -0.52304792 0.84628153
-20.757 9.059 -1.6160001 -0.013040063 0.66973513 -0.51065731 0.84231001
-21.188999 9.1700001 -1.651 0.33075857 0.54260725 -0.46692112 0.78856778
-21.224001 9.1049995 -1.652 0.24664967 0.59385103 -0.49747193 0.81300271
-21.325001 9.0699997 -1.658 0.078637585 0.6396054 -0.60595387 0.88456714
-21.572001 9.0950003 -1.677 -0.17815843 0.61621064 -0.59391069 0.87417728
-22.34 9.3369999 -1.742 0.11850861 0.40415552 -0.017604828 0.4215399
-22.124001 9.165 -1.72 0.043851111 0.44218722 -0.055452406 0.4478029
-22.007999 9.0760002 -1.709 0.17744106 0.62425536 -0.55864316 0.85630733
-21.723 8.8789997 -1.682 -0.0053623267 0.63743716 -0.5889473 0.86787891
-21.774 8.8199997 -1.684 -0.014111559 0.61968416 -0.59396064 0.85848522
-21.902 8.7919998 -1.692 0.13169238 0.60426593 -0.55554569 0.83133101
-16.344 8.9469995 -1.401 0.078234226 0.6264993 -0.51283854 0.81340355
-16.438999 8.9320002 -1.4069999 0.06741149 0.6181708 -0.51057869 0.80459309
-16.593 8.948 -1.42 0.055728793 0.62100482 -0.47098297 0.78139466
-16.771 8.9759998 -1.434 0.04991591 0.62240064 -0.47715154 0.78584206
-16.853001 8.9860001 -1.441 0.047002438 0.62146002 -0.50637442 0.80301732
-16.989 8.9899998 -1.451 0.046847336 0.62683916 -0.52209818 0.81713432
-17.139 9 -1.4630001 0.054179706 0.63660091 -0.51094836 0.81808585
-17.231001 8.9790001 -1.469 0.052737661 0.63047856 -0.52156931 0.81995064
-17.334999 8.9639997 -1.477 0.074015968 0.62904507 -0.51769185 0.81803477
-17.393 8.9250002 -1.48 0.11285852 0.62580323 -0.49964309 0.80870879
-17.649 8.9860001 -1.502 0.10258991 0.63992709 -0.43711403 0.78172886
-17.872999 9.0640001 -1.522 -0.0066254251 0.6562469 -0.34943622 0.74351162
-17.996 9.0550003 -1.531 0.073598072 0.66658688 -0.46343416 0.81518465
-18.080999 9.0270004 -1.536 0.023600485 0.67598927 -0.45444569 0.81488609
-18.452 8.9960003 -1.564 -0.11621651 0.64760733 -0.52392238 0.84106851
-18.448 8.9219999 -1.561 -0.11700061 0.64789927 -0.51913881 0.83843172
-18.444 8.8850002 -1.559 -0.079337552 0.64983279 -0.52706349 0.84046
-18.524 8.8509998 -1.564 -0.0401242 0.65837443 -0.52693224 0.84423012
-18.667 8.8479996 -1.575 -0.026753452 0.66151321 -0.5462473 0.8583132
-19.591 9.2089996 -1.66 0.06988553 0.5516994 -0.80240518 0.97627366
-19.368999 9.0310001 -1.636 0.10249405 0.64461303 -0.58944702 0.87947643
-19.434999 8.9879999 -1.64 0.055886004 0.64632535 -0.60084373 0.88423574
-19.415001 8.9040003 -1.635 0.063827343 0.6402719 -0.58528459 0.86981612
-19.546 8.927 -1.646 -0.043787215 0.6434989 -0.60433149 0.88386917
-19.642 8.8959999 -1.653 -0.028184796 0.6317485 -0.64407867 0.90262836
-19.712999 8.8540001 -1.6569999 -0.055366416 0.64316231 -0.60811794 0.88686568
-19.851999 8.8409996 -1.6670001 -0.0025642272 0.64130884 -0.62257695 0.89380401
-19.997999 8.8310003 -1.678 -0.0028749399 0.6497097 -0.59543341 0.88128996
-20.153999 8.8240004 -1.6900001 0.010977363 0.63687903 -0.6290772 0.8952505
-20.315001 8.8179998 -1.7029999 -0.013136487 0.65021276 -0.58028978 0.87159932
-20.452999 8.8400002 -1.714 0.024166603 0.63300687 -0.62261242 0.88821614
-20.624001 8.8369999 -1.728 0.017219227 0.64131427 -0.59368914 0.87409794
-20.775999 8.8249998 -1.739 -0.025863949 0.65270334 -0.55230188 0.85541099
-20.936001 8.8149996 -1.752 -0.066033728 0.62108237 -0.62888235 0.88633895
-21.108999 8.8100004 -1.765 0.006164846 0.58440542 -0.71903408 0.92659467
-21.280001 8.8030005 -1.779 -0.036558185 0.57808018 -0.7265749 0.92920625
-21.452 8.7939997 -1.7920001 -0.041618295 0.59793657 -0.69237602 0.91577554
-21.615 8.8219995 -1.806 -0.060825888 0.59641922 -0.68526977 0.91050005
-21.785 8.8109999 -1.819 -0.018669872 0.56090641 -0.74751443 0.93474191
-21.957001 8.8000002 -1.8329999 0.10238989 0.58405608 -0.62389231 0.86072457
-17.694 9.3400002 -1.638 0.029141402 0.36809596 -0.0035088658 0.36926436
-17.607 9.224 -1.626 0.42737585 0.46726078 -0.40590721 0.75215918
-17.481001 9.0869999 -1.61 0.18483342 0.615403 -0.56285262 0.85421741
-17.591999 9.0749998 -1.618 0.12473962 0.63445705 -0.59545666 0.8790133
-17.528999 8.9729996 -1.609 0.059527535 0.63853067 -0.56291938 0.85331309
-18.155001 9.151 -1.668 -0.076266207 0.57022768 -0.75638962 0.95031649
-18.01 9.0419998 -1.651 0.087179869 0.6238898 -0.65120566 0.90603954
-18.072001 9.0019999 -1.655 -0.0042562168 0.63998395 -0.62464035 0.8943004
-18.145 8.967 -1.659 -0.053034227 0.63169384 -0.6269244 0.89156264
-18.267 8.9569998 -1.669 -0.096935421 0.63025856 -0.60291165 0.87756753
-18.274 8.8889999 -1.6670001 -0.096155368 0.62504935 -0.60386562 0.87440622
-18.381001 8.8690004 -1.675 -0.086047843 0.63234121 -0.58503878 0.86575401
-18.486 8.849 -1.683 -0.040655605 0.64297885 -0.57253635 0.86190057
-18.614 8.875 -1.694 -0.049404874 0.64785862 -0.5544216 0.85413408
-18.745001 8.8649998 -1.705 -0.038567226 0.6470843 -0.55339515 0.85232139
-18.881001 8.8570004 -1.716 0.034761354 0.63319021 -0.58778089 0.86465287
-19.018999 8.849 -1.727 0.03658868 0.63567579 -0.5964573 0.87245846
-19.16 8.842 -1.738 0.039449688 0.62291861 -0.63573575 0.89092302
-19.302 8.8339996 -1.75 0.021565434 0.61743635 -0.65543866 0.90071779
-19.465 8.835 -1.7640001 -0.02136383 0.63568759 -0.60993439 0.881235
-19.591999 8.8559999 -1.775 -0.029182846 0.6125831 -0.67729497 0.9136948
-19.739 8.8479996 -1.7869999 -0.0025873126 0.60922921 -0.68861598 0.91943401
-19.893 8.842 -1.8 -0.037003528 0.60016423 -0.68673289 0.91278058
-20.059 8.8400002 -1.814 -0.0064571155 0.58582222 -0.72434479 0.9316141
-20.212 8.8330002 -1.826 0.036641166 0.61354589 -0.66409028 0.90487403
-20.368999 8.8249998 -1.839 0.00040021492 0.6285342 -0.62369001 0.88546294
-20.538 8.8219995 -1.853 0.018361149 0.61338812 -0.65333933 0.89634502
-20.704 8.8549995 -1.869 0.005013003 0.59785742 -0.69313544 0.91536623
-20.847 8.8389997 -1.88 -0.028776489 0.60254216 -0.68523419 0.91292441
-21.007999 8.8299999 -1.893 -0.028206792 0.64531595 -0.50676727 0.82100022
-21.17 8.8199997 -1.9069999 -0.015839145 0.57273149 -0.73643517 0.93306434
-21.351 8.8170004 -1.9220001 -0.032584123 0.59793496 -0.68609095 0.9106639
-21.514999 8.8050003 -1.936 -0.03477959 0.60312057 -0.68191886 0.91103095
-21.708 8.8050003 -1.952 -0.018073138 0.63538927 -0.56572402 0.85093468
-21.864 8.8290005 -1.966 0.086538106 0.60904813 -0.61370599 0.86894393
-16.997 8.8789997 -1.683 0.021972658 0.60445517 -0.57057607 0.83150822
-17.101 8.8649998 -1.692 0.01283367 0.60917658 -0.57440674 0.83737916
-17.219 8.8579998 -1.702 0.048129935 0.60115165 -0.61370224 0.86042446
-17.33 8.8800001 -1.7130001 0.064155638 0.60969806 -0.60874611 0.86395574
-17.445 8.8699999 -1.722 0.046179395 0.62766123 -0.59304059 0.86474752
-17.573999 8.8660002 -1.733 0.031979099 0.63063532 -0.60468578 0.87428164
-17.705 8.8620005 -1.745 0.013258388 0.62484771 -0.63004631 0.8874507
-17.827999 8.8540001 -1.755 0.062695846 0.61685753 -0.64379895 0.89382386
-17.941 8.8400002 -1.7640001 0.0615022 0.60276121 -0.6789695 0.91000175
-18.077999 8.8360004 -1.776 -0.00014936738 0.58710414 -0.69941026 0.91316265
-18.208 8.8640003 -1.789 -0.049269259 0.61767346 -0.65876877 0.90439165
-18.327999 8.8509998 -1.799 -0.063594982 0.61685038 -0.63515544 0.88767737
-18.469999 8.8479996 -1.811 -0.04301893 0.62653679 -0.61433256 0.87852347
-18.545 8.8129997 -1.817 -0.052390084 0.6169315 -0.63432348 0.88640594
-18.664 8.7969999 -1.827 -0.022716591 0.61322606 -0.65901017 0.9004758
-18.849001 8.8120003 -1.844 -0.0024432617 0.63985819 -0.5606519 0.85073793
-18.952 8.7880001 -1.852 0.0094101466 0.63490438 -0.57807744 0.85869998
-19.145 8.8400002 -1.8710001 0.04833252 0.62444705 -0.60415006 0.87021112
-19.288 8.8330002 -1.8839999 0.033945542 0.62582093 -0.60369521 0.8702023
-19.452 8.8339996 -1.898 -0.0057198703 0.63283437 -0.5961228 0.8694104
-19.594 8.8240004 -1.911 -0.037473522 0.62721795 -0.60023087 0.86895555
-19.745001 8.8179998 -1.924 -0.076577574 0.61352688 -0.63957316 0.8895691
-19.902 8.8129997 -1.938 -0.055358388 0.6024192 -0.68586189 0.91453815
-20.054001 8.8039999 -1.951 -0.036645256 0.561176 -0.76108062 0.94631135
-20.208 8.8339996 -1.966 0.039973404 0.59107345 -0.71140063 0.9257735
-20.360001 8.8240004 -1.979 0.0041213152 0.65023178 -0.4949286 0.8171736
-20.534 8.823 -1.995 0.00046293467 0.6450029 -0.49679103 0.8141439
-20.702999 8.8179998 -2.01 -0.015950223 0.64778638 -0.51007968 0.82465923
-20.857 8.8059998 -2.0239999 -0.024934079 0.64498931 -0.51272845 0.82433212
-21.007999 8.7919998 -2.0369999 -0.02820898 0.64532256 -0.50676525 0.82100421
-21.179001 8.7849998 -2.052 -0.051030964 0.6402114 -0.53387988 0.83516616
-21.312 8.8009996 -2.0650001 -0.041941889 0.64173555 -0.55284107 0.84806657
-21.423 8.7679996 -2.073 -0.028385006 0.64041692 -0.56079227 0.85172033
-21.487 8.7159996 -2.0769999 -0.032292992 0.63604212 -0.56198466 0.84936398
-16.919001 8.8789997 -1.794 -0.0072226152 0.59996039 -0.58166617 0.83566749
-17.035 8.8710003 -1.804 -0.024133161 0.59589142 -0.62216085 0.86183125
-17.16 8.868 -1.816 0.0051052235 0.59525871 -0.65500027 0.88508999
-17.282 8.8629999 -1.827 0.043664888 0.593934 -0.65843809 0.8878091
-17.393999 8.8520002 -1.837 0.05708795 0.59423655 -0.68580002 0.90922922
-17.502001 8.8719997 -1.848 0.050490014 0.61533028 -0.63608742 0.88644671
-17.631001 8.868 -1.86 0.0172594 0.60930949 -0.64356571 0.88641572
-17.753 8.8599997 -1.8710001 0.028814912 0.61411893 -0.63507056 0.8839044
-17.877001 8.8520002 -1.882 0.038928438 0.620646 -0.61351591 0.87356663
-18.007999 8.8470001 -1.8940001 0.018035976 0.61653596 -0.62222379 0.87613034
-18.138 8.8400002 -1.906 0.0017787833 0.61318535 -0.66748011 0.90638244
-18.266001 8.8310003 -1.9170001 -0.042059459 0.62252879 -0.6334374 0.88913107
-18.391001 8.8559999 -1.9299999 -0.049399883 0.615327 -0.63211781 0.88353866
-18.528 8.8509998 -1.943 -0.060867883 0.61000299 -0.65003729 0.89350832
-18.597 8.8120003 -1.948 -0.071966238 0.57946628 -0.71552676 0.92354691
-18.722 8.8000002 -1.959 -0.029248632 0.5664922 -0.74775314 0.93856466
-18.792999 8.7609997 -1.964 -0.02320515 0.52357835 -0.80240655 0.95839918
-19.083 8.8240004 -1.994 0.029708328 0.63980412 -0.54328704 0.83987659
-19.226999 8.8170004 -2.0079999 0.013712045 0.64449066 -0.5046193 0.81865549
-19.355 8.8389997 -2.0209999 0.0073382645 0.64160472 -0.5390681 0.8380363
-19.493 8.8290005 -2.033 -0.023660976 0.6383695 -0.54038501 0.83671468
-19.636 8.8199997 -2.0469999 -0.072765291 0.62501574 -0.60499752 0.87290406
-19.753 8.7980003 -2.0569999 -0.077341624 0.58430684 -0.70712554 0.92055571
-19.823999 8.7550001 -2.062 0.11714972 -0.22943683 -0.1761432 0.31207651
-16.940001 8.8920002 -1.9220001 -0.029152423 0.60041392 -0.59926116 0.84879953
-17.056999 8.8839998 -1.933 -0.020723358 0.60527003 -0.65705907 0.89359266
-17.177999 8.8789997 -1.9450001 0.025795454 0.57447469 -0.72581875 0.92601269
-17.299999 8.8730001 -1.957 0.033071127 0.53606188 -0.78403562 0.95035148
-17.423 8.8669996 -1.9680001 0.046489719 0.59140801 -0.68436193 0.90569085
-17.552 8.8629999 -1.9809999 0.066859014 0.59280115 -0.68218076 0.90623057
-17.655001 8.8800001 -1.992 0.016908232 0.63955498 -0.45771924 0.78665328
-17.777 8.8719997 -2.0039999 0.0098203104 0.63795179 -0.45496863 0.7836296
-17.917 8.8710003 -2.0179999 0.0014819559 0.65238225 -0.4618389 0.79931217
-18.031 8.8570004 -2.0280001 -0.0078093503 0.64996552 -0.47693014 0.80621243
-18.153 8.8459997 -2.04 -0.022037512 0.62717932 -0.60027349 0.86842841
-18.26 8.8269997 -2.05 -0.057632513 0.61674958 -0.6229887 0.87853086
-18.363001 8.8059998 -2.059 -0.079523221 0.59101397 -0.68379664 0.90730333
-18.43 8.802 -2.0650001 -0.072554849 0.59440607 -0.68587261 0.91049659
-18.500999 8.7650003 -2.0710001 0.16321968 -0.2185836 -0.17106381 0.32199731
-18.572001 8.5139999 -2.066 0.24820092 -0.025138602 -0.068089694 0.25859591
-16.761 8.8769999 -2.02 0.021530274 0.60808307 -0.55919552 0.82639468
-16.822001 8.842 -2.0250001 0.0088291503 0.60702252 -0.55633426 0.82344526
-16.864 8.8299999 -2.029 -0.089781292 0.55667531 -0.67313242 0.87809759
-17.017 8.8430004 -2.0450001 -0.086484447 0.54725409 -0.72490156 0.91238636
-17.125999 8.8310003 -2.056 -0.055997279 0.53376961 -0.77240509 0.94056118
-17.190001 8.7959995 -2.0610001 0.076316804 -0.2110908 -0.11504635 0.25222856
-17.15 8.5719995 -2.0450001 0.27629316 -0.10695948 -0.10226703 0.31342748
