# .PCD v0.7 - Point Cloud Data file format
VERSION 0.7
FIELDS x y z normal_x normal_y normal_z curvature
SIZE 4 4 4 4 4 4 4
TYPE F F F F F F F
COUNT 1 1 1 1 1 1 1
WIDTH 172
HEIGHT 1
VIEWPOINT 0 0 0 1 0 0 0
POINTS 172
DATA ascii
28.716 -8.0970001 1.2180001 0.034639165 0.16601759 -0.41239548 0.44590554
29.066 -8.0970001 1.229 0.030484691 0.16476685 -0.42507464 0.45690906
29.469999 -8.1090002 1.243 0.50043201 -0.24410519 -0.31703669 0.64072758
29.525999 -8.0249996 1.244 0.51375228 -0.36806524 -0.33451682 0.71506286
29.476999 -7.9619999 1.242 0.51285917 -0.39272612 -0.37082019 0.74482614
29.455 -7.8569999 1.24 0.52377731 -0.44609141 -0.40570712 0.79871053
29.441 -7.7540002 1.239 0.50748694 -0.48736626 -0.44490364 0.83247107
29.618 -7.7010002 1.244 -0.36117294 0.027586609 -0.32994774 0.48997188
29.605 -7.599 1.243 -0.27102071 0.10700676 -0.35207209 0.4570092
28.440001 -8.1239996 1.021 0.044811271 0.16369587 -0.40928456 0.44307813
28.796 -8.1280003 1.031 0.043776929 0.16096684 -0.45310271 0.48283416
29.496 -8.1269999 1.049 0.50829566 -0.24516574 -0.35259169 0.6654259
29.502001 -8.0290003 1.049 0.50510985 -0.32557034 -0.39735183 0.72043079
29.466999 -7.9200001 1.0470001 0.49121249 -0.42358938 -0.41122389 0.76799917
29.429001 -7.8600001 1.046 0.49624684 -0.43554825 -0.40842938 0.77638763
29.424999 -7.7600002 1.045 0.49940675 -0.40669128 -0.47210664 0.79855466
29.614 -7.71 1.049 0.40296608 -0.60529554 -0.39565656 0.82783359
29.686001 -7.6300001 1.051 -0.25037384 0.17314798 -0.45521089 0.54761684
29.934999 -7.5939999 1.057 -0.16218705 0.13637418 -0.44556397 0.49338606
28.570999 -8.1199999 0.88499999 0.037345033 0.15512529 -0.46966398 0.49602696
28.950001 -8.1289997 0.89300001 0.068583235 0.15616691 -0.47351518 0.50329751
29.556999 -8.099 0.90600002 0.48137024 -0.25914633 -0.41585538 0.68688416
29.524 -7.9899998 0.90499997 0.48311758 -0.33021942 -0.42616048 0.72391999
29.495001 -7.8829999 0.90399998 0.50790405 -0.39364424 -0.39766872 0.75568694
29.479 -7.7800002 0.903 0.48806757 -0.41769245 -0.40810385 0.76106876
29.499001 -7.7350001 0.903 0.46966088 -0.47096711 -0.41091424 0.78181958
29.649 -7.6750002 0.90600002 -0.25474098 0.18232727 -0.41305086 0.51840836
30.007999 -7.6669998 0.91399997 -0.14044032 0.1366466 -0.47966993 0.51814961
30.091999 -7.5879998 0.91500002 -0.29068863 0.098116487 -0.51824999 0.60225391
28.745001 -8.2030001 0.662 0.06465926 0.1487034 -0.49477339 0.52066708
29.124001 -8.2130003 0.66799998 0.014219323 0.16526282 -0.5152455 0.54128724
29.403 -8.2419996 0.67199999 -0.2829574 0.090627104 -0.49402449 0.57648796
29.514999 -8.1730003 0.67400002 0.46255818 -0.46415359 -0.4249965 0.78103817
29.499001 -8.0690002 0.67299998 0.48836273 -0.28668329 -0.47319737 0.73797101
29.459999 -7.9590001 0.67199999 0.48815605 -0.3264825 -0.4647986 0.74894917
29.440001 -7.8540001 0.671 0.4894796 -0.33151874 -0.4385432 0.73608088
29.344999 -7.73 0.66900003 0.46872622 -0.4721882 -0.50589156 0.83581829
29.620001 -7.7529998 0.67299998 0.37982696 -0.57617033 -0.39673427 0.79601437
29.627001 -7.6560001 0.67299998 -0.30223045 0.13811365 -0.44966969 0.5591256
30.062 -7.6680002 0.68000001 -0.075500049 0.18593994 -0.40582013 0.45272937
28.624001 -8.2390003 0.50800002 0.058960453 0.14705232 -0.50188982 0.52630228
29.056 -8.2650003 0.51200002 0.026940042 0.1772579 -0.45505613 0.48910347
29.351 -8.2489996 0.51499999 -0.28844628 0.097780377 -0.43180928 0.52841413
29.545 -8.2030001 0.51700002 0.49302325 -0.2927478 -0.39652759 0.69714224
29.495001 -8.0889997 0.51599997 0.49832335 -0.31865355 -0.43815318 0.73610085
29.468 -7.9829998 0.51599997 0.49020967 -0.32524985 -0.43679154 0.73272085
29.438 -7.9250002 0.51499999 0.4874225 -0.3425768 -0.45093071 0.7471801
29.316 -7.7940001 0.514 0.45650303 -0.37332252 -0.57716179 0.82515478
29.570999 -7.7620001 0.51599997 0.35537022 -0.60582393 -0.40567276 0.81109864
29.580999 -7.665 0.51599997 -0.25390202 0.1690754 -0.41170666 0.51240128
29.868999 -7.6389999 0.51899999 -0.1246953 0.22519419 -0.42287505 0.49506024
28.813999 -8.29 0.301 0.10183139 0.19102538 -0.3982462 0.45327735
29.131001 -8.2819996 0.30199999 -0.077190839 0.17409843 -0.39872739 0.44187352
29.436001 -8.2690001 0.303 0.40518561 -0.59328395 -0.40558809 0.825023
29.448 -8.1730003 0.303 0.46811312 -0.43202513 -0.42449659 0.76548868
29.422001 -8.066 0.303 0.4865256 -0.35666782 -0.41806367 0.73395938
29.4 -7.961 0.303 0.49065036 -0.32401639 -0.40717614 0.71520406
29.377001 -7.8559999 0.303 0.47717381 -0.39178607 -0.36889166 0.71921641
29.278999 -7.7800002 0.30199999 0.4723362 -0.39665106 -0.37549147 0.7220993
29.559 -7.756 0.303 -0.32077828 0.11271387 -0.42739362 0.5461396
29.697001 -7.6919999 0.30399999 -0.20853925 0.19912598 -0.4761779 0.55667329
29.923 -7.651 0.30399999 -0.12984022 0.1795952 -0.45435697 0.50552267
29.032 -8.2700005 0.16 -0.0064512724 0.2029638 -0.38111535 0.4318389
29.351999 -8.2609997 0.15899999 -0.29232967 0.13400078 -0.40470013 0.51690912
29.565001 -8.1210003 0.15899999 0.47689819 -0.32478222 -0.43441895 0.72224313
29.537001 -8.0139999 0.15899999 0.46419311 -0.39422914 -0.40101647 0.72918183
29.506001 -7.9060001 0.15899999 0.47521707 -0.40801519 -0.40402654 0.74534899
29.511 -7.8080001 0.15899999 0.4650524 -0.43692857 -0.45415792 0.78322393
29.523001 -7.7620001 0.15899999 0.45854059 -0.45753467 -0.43842611 0.78218597
29.652 -7.6960001 0.15899999 -0.33054602 0.11828628 -0.37340921 0.51252979
30.063999 -7.7020001 0.15800001 -0.14629489 0.17202851 -0.46723282 0.51894367
30.108999 -7.6129999 0.15800001 -0.1762131 0.16621226 -0.46814775 0.52710521
28.636 -8.2010002 -0.028999999 0.13345383 0.18091771 -0.32336915 0.3938385
29.118 -8.2410002 -0.033 -0.065233238 0.20720738 -0.33170518 0.39650801
29.385 -8.2670002 -0.035 -0.37510815 0.040438622 -0.29788724 0.48070595
29.516001 -8.2040005 -0.035999998 0.37841874 -0.55345726 -0.52658689 0.85253119
29.473 -8.092 -0.035 0.44234163 -0.43822891 -0.51062077 0.80526036
29.448 -7.9860001 -0.035 0.4768548 -0.39693892 -0.45362911 0.76858985
29.427999 -7.881 -0.034000002 0.4865177 -0.35508132 -0.40028769 0.72319603
29.406 -7.777 -0.034000002 0.45670527 -0.46271849 -0.39981464 0.76324296
29.582001 -7.724 -0.035 0.44201782 -0.41776592 -0.54221094 0.8148011
29.594 -7.677 -0.035 0.41131234 -0.4892748 -0.54739171 0.8415494
30.018999 -7.6869998 -0.037999999 -0.020786872 0.17665106 -0.41603625 0.45246419
28.871 -8.2220001 -0.215 0.053250074 0.19831344 -0.33997828 0.39717633
29.211 -8.2200003 -0.22 -0.16196021 0.20096207 -0.40586755 0.4809837
29.473 -8.1429996 -0.223 0.47950497 -0.26694423 -0.3971163 0.67741096
29.454 -8.0389996 -0.222 0.47508493 -0.34064007 -0.41285807 0.71567672
29.437 -7.9349999 -0.222 0.46724027 -0.38315552 -0.42261815 0.73737895
29.405001 -7.8270001 -0.221 0.47118446 -0.36436158 -0.42421407 0.73125356
29.426001 -7.7340002 -0.221 0.44185197 -0.46242404 -0.42200202 0.76626033
29.57 -7.6729999 -0.223 -0.32389206 0.1262202 -0.42249632 0.54712039
29.954 -7.6719999 -0.228 -0.0056372192 0.20447981 -0.39826366 0.44772506
30.312 -7.7119999 -0.233 0.010426614 0.18765321 -0.34261715 0.39077994
28.610001 -8.1459999 -0.419 0.073195316 0.2052075 -0.34849221 0.41099206
29.487 -8.1960001 -0.43700001 0.46277386 -0.32321784 -0.30061403 0.63952971
29.497999 -8.1490002 -0.43700001 0.4706572 -0.28637531 -0.32472223 0.63951039
29.483 -8.0459995 -0.43599999 0.46718341 -0.35388827 -0.34379834 0.67948109
29.450001 -7.9369998 -0.43399999 0.47868463 -0.30687016 -0.4128595 0.70268148
29.361 -7.8140001 -0.43200001 0.45947471 -0.4101049 -0.39279741 0.73047435
29.573 -7.7709999 -0.43599999 0.46128416 -0.40126643 -0.38272756 0.72130316
29.599001 -7.6789999 -0.43599999 -0.31004149 0.13564801 -0.4455291 0.55948395
29.974001 -7.6760001 -0.44400001 -0.060632676 0.20559868 -0.39424634 0.44875085
30.091999 -7.6560001 -0.44600001 -0.00069649145 0.17559636 -0.35594496 0.39690223
28.386 -8.1350002 -0.565 0.045678932 0.21744907 -0.40199453 0.459315
28.778999 -8.1490002 -0.57499999 0.13057992 0.19230446 -0.46700901 0.52166033
29.518 -8.2080002 -0.59399998 0.4794623 -0.24786256 -0.42680043 0.68809777
29.513 -8.1070004 -0.59299999 0.47914773 -0.30014125 -0.41464916 0.70114279
29.476999 -7.9970002 -0.59200001 0.47465584 -0.34357047 -0.42730266 0.72520781
29.455 -7.8920002 -0.58999997 0.47299916 -0.35245854 -0.43770856 0.73453659
29.464001 -7.796 -0.58999997 0.44110912 -0.4615947 -0.38810804 0.7471779
29.608999 -7.7340002 -0.59299999 -0.36961657 0.088580847 -0.40456972 0.55510324
29.683001 -7.6539998 -0.59500003 -0.14978082 0.21451402 -0.42988139 0.50323808
30.075001 -7.704 -0.60500002 -0.030658122 0.1782375 -0.38389364 0.42436171
28.898001 -8.2740002 -0.75800002 0.049085166 0.20088783 -0.53194326 0.57072663
29.26 -8.2790003 -0.76899999 -0.12187865 0.18246141 -0.55434352 0.59619063
29.538 -8.2580004 -0.77700001 0.47973138 -0.25357157 -0.41689834 0.68428427
29.483 -8.1429996 -0.77499998 0.47958243 -0.25012225 -0.41466552 0.68154818
29.450001 -8.0839996 -0.773 0.47981581 -0.25787511 -0.42719841 0.69225812
29.434 -7.98 -0.77200001 0.47882128 -0.30308187 -0.40675077 0.69754899
29.423 -7.8779998 -0.77100003 0.47334039 -0.34841469 -0.44487911 0.73713052
29.459 -7.7880001 -0.77100003 0.42302698 -0.50108576 -0.44678068 0.79350597
29.541 -7.711 -0.773 -0.37165982 0.085025907 -0.3844043 0.54141212
29.771999 -7.6719999 -0.77999997 -0.081432477 0.22193947 -0.43446031 0.49461517
30.040001 -7.6399999 -0.78799999 -0.029503837 0.18704975 -0.40377718 0.44597545
28.725 -8.2690001 -0.94800001 0.22101903 0.14571384 -0.53967965 0.60111237
29.139 -8.2889996 -0.96399999 -0.0099117309 0.21618488 -0.46063808 0.50894165
29.465 -8.2810001 -0.97600001 -0.325771 0.12043801 -0.36137402 0.50122172
29.542999 -8.2030001 -0.97799999 0.4876526 -0.27148262 -0.40648293 0.69046092
29.511 -8.0939999 -0.97600001 0.48753092 -0.24976973 -0.41751069 0.68875718
29.476999 -7.9850001 -0.97299999 0.48000228 -0.2658653 -0.42304802 0.69286084
29.454 -7.9299998 -0.972 0.48000547 -0.26611698 -0.42292327 0.69288355
29.368999 -7.8080001 -0.96700001 0.47658837 -0.32936212 -0.41734022 0.71399492
29.621 -7.7750001 -0.977 0.43037254 -0.48090699 -0.5122745 0.82396436
29.611 -7.6729999 -0.97500002 -0.34354702 0.1050446 -0.36609623 0.51291847
30.070999 -7.691 -0.99299997 -0.018334202 0.18678564 -0.39921919 0.441136
28.76 -8.302 -1.128 0.041582286 0.20667419 -0.45009726 0.49702197
29.145 -8.3140001 -1.1440001 -0.069635287 0.17570412 -0.2231445 0.29242861
29.507 -8.2180004 -1.159 -0.36288178 -0.11084574 -0.10324866 0.39323053
29.486 -8.1120005 -1.1569999 -0.38133773 -0.19516216 -0.094846487 0.43875116
29.479 -8.0100002 -1.155 0.43947044 -0.29439709 -0.63786459 0.82865864
29.452 -7.9039998 -1.153 0.4882057 -0.25316218 -0.41627443 0.6897248
29.386999 -7.8369999 -1.149 0.430897 -0.28282136 -0.6376549 0.81991702
29.444 -7.7529998 -1.151 0.47945505 -0.29012057 -0.51478136 0.76095134
29.476 -7.6630001 -1.151 0.45369172 -0.38585034 -0.56111711 0.81827199
29.997 -7.698 -1.174 0.14107046 0.14445123 -0.47701424 0.51798612
29.122999 -8.073 -1.314 -0.14484994 -0.20405185 0.058989644 0.25709617
28.959 -7.9299998 -1.304 0.016855173 -0.27841175 0.079660833 0.2900742
28.822001 -7.7950001 -1.296 0.024323506 -0.26658916 0.072175473 0.27725568
28.868999 -7.711 -1.2970001 0.011710256 -0.26255623 0.069772631 0.27192116
28.955 -7.6360002 -1.3 0.011154261 -0.26234758 0.069802821 0.27170408
28.931 -7.5809999 -1.298 0.011154261 -0.26234758 0.069802821 0.27170408
28.976 -7.4959998 -1.299 0.014042929 -0.26093918 0.067578524 0.26991352
29.105 -7.4320002 -1.3049999 0.012360519 -0.25785872 0.067119092 0.26673746
29.208 -7.3600001 -1.309 0.01351144 -0.25871587 0.067047775 0.26760393
29.25 -7.2729998 -1.3099999 0.011028915 -0.26551205 0.071325541 0.27514654
29.409 -7.2150002 -1.317 -0.0036622398 -0.25906181 0.070171803 0.26842228
29.451 -7.1269999 -1.318 -0.0101112 -0.27411586 0.080228835 0.28579435
29.417 -7.0700002 -1.316 -0.010488098 -0.27369258 0.080248147 0.28540742
29.556 -7.0050001 -1.322 -0.019769017 -0.29666224 0.096697628 0.31264955
29.691 -6.9380002 -1.327 -0.011721097 -0.28665084 0.088800013 0.30031905
29.746 -6.8530002 -1.329 -0.0090366192 -0.29134232 0.092706174 0.30586997
29.799999 -6.7670002 -1.331 -0.015637845 -0.29006463 0.094237059 0.30538934
29.860001 -6.6820002 -1.3329999 -0.021579562 -0.29588318 0.095383048 0.31162551
29.91 -6.6430001 -1.335 -0.02121127 -0.30095279 0.096083075 0.31662983
29.985001 -6.5609999 -1.3380001 -0.048863862 -0.27469397 0.096736014 0.29530036
30.091 -6.4850001 -1.342 -0.030955136 -0.29788956 0.11015153 0.31910777
30.164 -6.402 -1.345 0.28750283 -0.6767388 -0.29943857 0.79391229
30.249001 -6.3210001 -1.348 -0.020551555 -0.32810459 0.11191037 0.34727356
30.343 -6.2410002 -1.352 -0.051979974 -0.30044478 0.10948896 0.32397041
30.448999 -6.1630001 -1.3559999 -0.070276432 -0.27668059 0.10900223 0.30556899
30.525 -6.1279998 -1.36 -0.095048577 -0.24158254 0.10509181 0.28007257
30.618 -6.0469999 -1.364 0.18590224 -0.54786867 -0.18103701 0.60621291
