# .PCD v0.7 - Point Cloud Data file format
VERSION 0.7
FIELDS x y z normal_x normal_y normal_z curvature
SIZE 4 4 4 4 4 4 4
TYPE F F F F F F F
COUNT 1 1 1 1 1 1 1
WIDTH 74
HEIGHT 1
VIEWPOINT 0 0 0 1 0 0 0
POINTS 74
DATA ascii
-1.777 15.296 -0.48100001 0.20856287 0.27062672 -0.82918787 0.89682209
-1.829 15.322 -0.48300001 0.29431075 0.051107198 -0.85846305 0.90894973
-1.882 15.362 -0.48500001 -0.24932066 -0.18209285 -0.072359532 0.3171033
-1.772 15.319 -0.57099998 0.10960551 0.38484761 -0.76557398 0.8638429
-1.823 15.332 -0.57200003 0.034765877 0.39933175 -0.77033854 0.86838698
-1.873 15.346 -0.57300001 0.058533661 0.39998996 -0.75880289 0.85976744
-1.834 15.173 -0.66100001 0.070297793 0.38123602 -0.78597671 0.87638009
-1.877 15.131 -0.65899998 0.076994121 0.3713479 -0.78420687 0.87109572
-1.926 15.131 -0.66000003 0.068033747 0.38012546 -0.78001964 0.87037611
-1.984 15.212 -0.66500002 0.10394841 0.39213634 -0.75856376 0.86022967
-2.0309999 15.2 -0.66399997 0.10168006 0.41512537 -0.72068626 0.83788818
-2.0810001 15.207 -0.66500002 0.10706005 0.42226878 -0.69974601 0.82426769
-2.1329999 15.232 -0.667 0.1162263 0.42159832 -0.69940042 0.82487249
-2.1600001 15.247 -0.66799998 0.12715931 0.42386353 -0.68371975 0.81443381
-2.2119999 15.272 -0.67000002 0.13180098 0.43509203 -0.65059948 0.79369783
-2.267 15.31 -0.67199999 0.13916939 0.45424095 -0.57300436 0.74433661
-2.3729999 15.361 -0.676 0.16598248 0.44766468 -0.57164478 0.74480307
-2.428 15.4 -0.67900002 0.18337706 0.4416112 -0.59162366 0.76070112
-1.8430001 15.302 -0.75099999 0.072948478 0.37912619 -0.78434783 0.87421948
-1.882 15.223 -0.74599999 0.11028141 0.3979733 -0.739182 0.84671998
-1.925 15.178 -0.74400002 0.096542656 0.41197178 -0.72910786 0.84299433
-1.988 15.476 -0.76300001 0.094419383 0.43135363 -0.70331788 0.83044386
-2.01 15.273 -0.75 0.11115032 0.42951012 -0.68064743 0.81247413
-2.053 15.227 -0.74800003 0.11239392 0.42753839 -0.68375915 0.8142162
-2.1040001 15.241 -0.74900001 0.12161297 0.43254569 -0.66464758 0.80227298
-2.154 15.252 -0.75 0.12527272 0.43544126 -0.65746099 0.79847181
-2.2079999 15.288 -0.75300002 0.13267601 0.4396202 -0.6433661 0.79043579
-2.234 15.295 -0.75400001 0.13351774 0.44427842 -0.6269505 0.77992129
-2.2909999 15.347 -0.75700003 0.1238361 0.45374125 -0.60407263 0.76558489
-2.3399999 15.345 -0.75800002 0.12097566 0.45746437 -0.59369045 0.75919503
-2.3970001 15.393 -0.76099998 0.14124119 0.45844615 -0.57686484 0.75026327
-2.5009999 15.425 -0.764 0.18192865 0.4499439 -0.59065896 0.76447731
-1.755 15.113 -0.84500003 -0.056390457 0.38991785 -0.77353644 0.8680867
-1.808 15.159 -0.84799999 0.11212777 0.346347 -0.80084437 0.87970483
-1.8609999 15.195 -0.85100001 0.12008613 0.40513659 -0.7068876 0.8235572
-1.903 15.144 -0.84799999 0.1254946 0.41247272 -0.69864392 0.82096654
-1.939 15.046 -0.84200001 0.099366881 0.4537316 -0.57032305 0.73553687
-1.9809999 15.184 -0.85100001 0.11515328 0.44002599 -0.65220052 0.79514068
-2.027 15.166 -0.85100001 0.11236525 0.44322136 -0.64555055 0.7910794
-2.072 15.141 -0.84899998 0.12196089 0.44131997 -0.62743968 0.77673566
-2.1359999 15.252 -0.85699999 0.12442859 0.44474989 -0.62947845 0.7807228
-2.1800001 15.215 -0.85500002 0.1329793 0.44592717 -0.61968201 0.77494538
-2.2290001 15.22 -0.85600001 0.14478403 0.44396147 -0.61913127 0.77549195
-2.29 15.3 -0.86199999 0.12957111 0.4473092 -0.62121749 0.77639252
-2.3369999 15.287 -0.86199999 0.15530814 0.44332755 -0.60125166 0.76299638
-2.3640001 15.301 -0.86299998 0.16184771 0.44069725 -0.60365301 0.76472592
-2.4089999 15.273 -0.86199999 0.16900903 0.44573778 -0.60513526 0.77034724
-2.224 15.238 -0.93300003 0.13859445 0.44907591 -0.60873473 0.76904845
-2.2750001 15.25 -0.935 0.15687639 0.44265664 -0.59609866 0.75887334
-2.3280001 15.279 -0.93699998 0.1511811 0.44586191 -0.59777695 0.76091117
-2.3789999 15.291 -0.93900001 0.16456455 0.44830191 -0.59758765 0.76496214
-2.404 15.293 -0.93900001 0.17304972 0.44545189 -0.59918725 0.76641959
-2.1559999 15.259 -1.035 0.13281918 0.44853547 -0.61340511 0.77142131
-2.2049999 15.262 -1.036 0.15816517 0.44355243 -0.59773636 0.76094925
-2.2609999 15.309 -1.04 0.14626947 0.45219654 -0.60054559 0.7658534
-2.3150001 15.341 -1.044 0.16054758 0.44723424 -0.59852517 0.76421618
-2.1760001 15.128 -1.113 0.16440244 0.4318234 -0.6040222 0.76048827
-2.2309999 15.172 -1.117 0.15639417 0.43753538 -0.60610545 0.76371467
-2.2809999 15.183 -1.119 0.16755369 0.43752313 -0.60553205 0.76561731
-2.392 15.267 -1.127 0.12979177 0.45973974 -0.61118448 0.77572739
-2.4419999 15.271 -1.128 0.15781109 0.45947218 -0.60142183 0.77312821
-2.1340001 15.153 -1.205 0.17827919 0.42334819 -0.61614698 0.76853383
-2.1849999 15.172 -1.2079999 0.18062326 0.42578351 -0.60752773 0.76354849
-2.2360001 15.188 -1.21 0.15435778 0.43823105 -0.60681045 0.76425892
-2.2839999 15.183 -1.21 0.15411776 0.43834856 -0.60679489 0.76426554
-2.1659999 15.163 -1.304 0.18363145 0.41737777 -0.63512623 0.78186315
-2.2130001 15.156 -1.304 0.18421471 0.41600788 -0.63515162 0.78129077
-2.267 15.193 -1.309 0.1769346 0.42859486 -0.62326396 0.77682519
-2.3280001 15.266 -1.317 0.16403088 0.44163147 -0.62017852 0.77882338
-2.3629999 15.182 -1.309 0.16169421 0.44084674 -0.62575114 0.78233969
-2.0999999 14.998 -1.381 0.24913232 0.38854179 -0.56074351 0.72626781
-2.1670001 15.128 -1.395 0.19065414 0.40847275 -0.6414656 0.78401345
-2.1860001 15.095 -1.392 0.19065414 0.40847275 -0.6414656 0.78401345
-2.2420001 15.147 -1.398 0.15826245 0.42641476 -0.65736449 0.79937762
