# .PCD v0.7 - Point Cloud Data file format
VERSION 0.7
FIELDS x y z normal_x normal_y normal_z curvature
SIZE 4 4 4 4 4 4 4
TYPE F F F F F F F
COUNT 1 1 1 1 1 1 1
WIDTH 56
HEIGHT 1
VIEWPOINT 0 0 0 1 0 0 0
POINTS 56
DATA ascii
-54.206001 -2.4100001 2.0439999 0.26825613 -0.19652434 -0.022677153 0.33331278
-54.105999 -2.576 2.0409999 0.2668424 -0.18372199 -0.042458266 0.32674354
-54.001999 -2.7409999 2.0380001 0.23866057 -0.14223033 -0.074851543 0.28773442
-53.887001 -2.905 2.0339999 0.29753825 -0.10115665 -0.14757884 0.34719044
-53.777 -2.984 2.03 0.33479482 -0.10058066 -0.16393766 0.38610825
-53.648998 -3.1459999 2.026 0.30776903 -0.16003042 -0.088527665 0.35800651
-53.515999 -3.3069999 2.0220001 0.40464583 -0.28181082 -0.076726869 0.49904168
-53.536999 -3.477 2.023 -0.044340841 -0.44566047 0.2980063 0.53794718
-53.462002 -3.641 2.0209999 -0.057440892 -0.45047784 0.29864067 0.54352182
-53.375999 -3.803 2.0190001 -0.023207251 -0.42885292 0.29582092 0.52150112
-53.252998 -3.9630001 2.0150001 -0.1486512 -0.37359345 0.21087134 0.45402199
-53.171001 -4.0409999 2.0120001 -0.14807335 -0.37348282 0.21085343 0.45373371
-53.048 -4.1989999 2.0090001 -0.056556739 -0.36319184 0.17723769 0.40806884
-52.77 -4.3439999 2 0.34612858 -0.022807628 -0.1399692 0.37405422
-52.686001 -4.5029998 1.997 0.41573477 -0.083495647 -0.19643779 0.46732721
-52.574001 -4.6599998 1.994 0.37378514 -0.047395855 -0.22430108 0.43848908
-52.476002 -4.8179998 1.9910001 0.33577716 -0.019416034 -0.2214999 0.4027226
-52.353001 -4.9720001 1.987 0.34010774 0.037527412 -0.26094979 0.43032125
-52.280998 -5.0479999 1.985 0.37220934 0.28104407 -0.32631868 0.56921828
-52.186001 -5.204 1.983 0.38656136 0.37341118 -0.28961045 0.61052418
-52.089001 -5.3600001 1.98 0.38927153 0.38913536 -0.25310504 0.60582244
-52.000999 -5.5159998 1.977 0.40250844 0.42944729 -0.2367619 0.63442433
-51.896 -5.6700001 1.974 0.36144987 0.4500587 -0.2421504 0.6259678
-51.688 -5.9759998 1.969 -0.011783401 0.25076485 0.071456701 0.26101327
-51.609001 -6.0489998 1.966 -0.021237139 0.25664511 0.075466067 0.26835212
-54.092999 -2.348 1.696 0.31458235 -0.16892701 -0.099471107 0.37066546
-54.006001 -2.5139999 1.694 0.30203074 -0.19065708 -0.053588182 0.36117083
-53.894001 -2.678 1.691 0.32997307 -0.18619975 -0.095901161 0.39083195
-53.786999 -2.8429999 1.689 0.31145433 -0.15549174 -0.10277133 0.36296478
-53.692001 -3.007 1.686 0.37879553 -0.14267945 -0.14057803 0.42849234
-53.567001 -3.0840001 1.683 0.39410263 -0.13394821 -0.14100257 0.4394778
-53.459999 -3.247 1.6799999 0.37237793 -0.12606129 -0.12071627 0.41125318
-52.874001 -3.8789999 1.665 0.059799708 -0.38262114 0.186427 0.42980224
-52.862 -4.0450001 1.665 0.057487965 -0.35813412 0.15656549 0.39506665
-52.793999 -4.1230001 1.664 0.062927678 -0.35497218 0.15632334 0.39294034
-52.681 -4.2810001 1.661 0.40530062 -0.08532396 -0.19448271 0.45757216
-52.563999 -4.4380002 1.658 0.39527878 -0.095763117 -0.16344979 0.43832833
-52.466 -4.5960002 1.656 0.33690706 -0.10157028 -0.15616253 0.38498005
-52.348999 -4.7509999 1.653 0.33624122 0.029348657 -0.26777172 0.43083778
-52.241001 -4.9070001 1.65 0.35562542 0.34391636 -0.34227583 0.60158175
-52.143002 -5.0630002 1.648 0.35543957 0.34653699 -0.34668607 0.6054886
-52.042 -5.1360002 1.646 0.35570267 0.35228717 -0.35892031 0.61599874
-51.938 -5.29 1.643 0.32791072 0.39622986 -0.32804829 0.61003214
-51.838001 -5.4450002 1.641 0.34622371 0.37804833 -0.30610418 0.59706885
-51.747002 -5.5999999 1.6390001 0.37913966 0.37572375 -0.29037085 0.60764337
-53.978001 -2.4579999 1.439 0.2983532 -0.19439209 -0.092856772 0.36800176
-53.874001 -2.6229999 1.437 0.28746647 -0.17828026 -0.11256916 0.35650057
-53.782001 -2.7880001 1.4349999 0.39236465 -0.18212396 -0.11971644 0.44883314
-53.643002 -2.95 1.432 0.36875412 -0.14223126 -0.14257312 0.42016238
-53.535999 -3.1129999 1.4299999 0.37793273 -0.12780684 -0.1374879 0.4219842
-52.200001 -4.849 1.402 0.3683928 0.27467161 -0.36608043 0.58751392
-52.101002 -5.0050001 1.4 0.37163433 0.34392428 -0.39156052 0.64009035
-51.988998 -5.1589999 1.398 0.36549193 0.38607261 -0.39348826 0.66141474
-51.895 -5.3140001 1.396 0.36493346 0.39008996 -0.40401179 0.66975528
-51.791 -5.3860002 1.3940001 0.31658316 0.40343016 -0.3658596 0.6299476
-51.688999 -5.539 1.392 0.30097836 0.4175404 -0.34253967 0.6182729
