# .PCD v0.7 - Point Cloud Data file format
VERSION 0.7
FIELDS x y z normal_x normal_y normal_z curvature
SIZE 4 4 4 4 4 4 4
TYPE F F F F F F F
COUNT 1 1 1 1 1 1 1
WIDTH 224
HEIGHT 1
VIEWPOINT 0 0 0 1 0 0 0
POINTS 224
DATA ascii
-5.8299999 13.173 -0.51999998 -0.384702 0.30624565 -0.36837602 0.61439639
-5.2639999 13.956 -0.63999999 0.39930332 -0.17013341 -0.25780267 0.50482744
-5.289 13.889 -0.63700002 0.40552855 -0.16068748 -0.26197743 0.5088281
-5.2940001 13.772 -0.63099998 0.39400256 -0.17065789 -0.25146034 0.4975886
-5.3509998 13.792 -0.634 0.38121459 -0.16875251 -0.24831825 0.48524627
-5.3610001 13.754 -0.63200003 0.36898801 -0.1921313 -0.24501696 0.48280421
-5.3870001 13.692 -0.62900001 0.34828353 -0.19940759 -0.22239119 0.45882747
-5.4809999 13.805 -0.63700002 0.33087641 -0.22919002 -0.22296211 0.46012974
-5.5240002 13.786 -0.63700002 0.30178541 -0.22843648 -0.18841958 0.42279974
-5.5560002 13.741 -0.63499999 0.26411915 -0.23162997 -0.15519795 0.38405439
-5.8140001 13.17 -0.611 0.38225621 -0.30388197 -0.46013668 0.67096186
-5.2979999 14.001 -0.72299999 0.38896641 -0.20784365 -0.28097716 0.52291679
-5.3299999 13.953 -0.72100002 0.38536379 -0.17610733 -0.26795393 0.50131661
-5.355 13.888 -0.71799999 0.39245209 -0.16152826 -0.26369584 0.49964538
-5.3959999 13.865 -0.71799999 0.39277023 -0.15702911 -0.26126099 0.49717593
-5.4120002 13.777 -0.713 0.36788002 -0.20198631 -0.25386974 0.49049366
-5.4190001 13.734 -0.71100003 0.33798274 -0.22710852 -0.22722065 0.46630445
-5.4450002 13.672 -0.708 0.32886341 -0.23727334 -0.22691467 0.46469349
-5.4689999 13.609 -0.70499998 0.30212548 -0.25773573 -0.21380979 0.45102343
-5.4889998 13.536 -0.70099998 0.26280528 -0.28485814 -0.19659254 0.43457958
-5.52 13.491 -0.699 0.24673545 -0.3049275 -0.19303164 0.43717316
-5.5739999 13.501 -0.70099998 0.22908837 -0.31600925 -0.20251578 0.4397226
-5.6240001 13.502 -0.70200002 0.24451759 -0.31548935 -0.21630624 0.45399424
-5.79 13.364 -0.69800001 0.30306652 -0.37943989 -0.4399024 0.65523893
-5.8099999 13.297 -0.69499999 0.32723752 -0.34624732 -0.37577498 0.60677707
-5.8429999 13.258 -0.69400001 0.33230391 -0.34217983 -0.37915736 0.60932195
-5.835 13.185 -0.68900001 0.37349176 -0.24571949 -0.30108929 0.53900737
-5.9159999 13.145 -0.68900001 0.4553321 -0.11703113 -0.38969612 0.61064446
-5.2179999 13.9 -0.81900001 0.43928427 -0.14889 -0.3160612 0.56127852
-5.2290001 13.864 -0.81699997 0.42815652 -0.17052522 -0.31353122 0.5574035
-5.2540002 13.797 -0.81400001 0.42852154 -0.17102644 -0.3217428 0.56249374
-5.3000002 13.788 -0.81400001 0.42000553 -0.17893845 -0.31963485 0.55730605
-5.3039999 13.669 -0.80699998 0.39849177 -0.21084234 -0.30274314 0.54305029
-5.3260002 13.599 -0.80299997 0.37487605 -0.2328501 -0.27905223 0.52213156
-5.355 13.546 -0.80000001 0.36020106 -0.2578108 -0.27073833 0.51914394
-5.382 13.492 -0.79699999 0.33537841 -0.27517536 -0.25232989 0.50186706
-5.3569999 13.367 -0.78899997 0.29816902 -0.319812 -0.27245331 0.5151847
-5.4299998 13.426 -0.79400003 0.27682602 -0.31789798 -0.23634478 0.48327076
-5.4850001 13.442 -0.79699999 0.25890407 -0.32066122 -0.22046828 0.46739835
-5.5349998 13.444 -0.79799998 0.24707775 -0.3260048 -0.22231486 0.46556467
-5.5900002 13.457 -0.80000001 0.2430152 -0.3205733 -0.22041818 0.4587023
-5.6490002 13.478 -0.80299997 0.25122294 -0.32268527 -0.23190647 0.47012696
-5.723 13.538 -0.80900002 0.23250708 -0.31962276 -0.20994025 0.44754124
-5.724 13.364 -0.79799998 0.26800469 -0.35593325 -0.29593793 0.53487778
-5.7480001 13.302 -0.79500002 0.27729237 -0.35741472 -0.29898423 0.54224342
-5.777 13.256 -0.79299998 0.29724818 -0.29732358 -0.24291319 0.48555598
-5.8169999 13.233 -0.792 0.31293169 -0.26405975 -0.22853565 0.46891612
-5.8119998 13.11 -0.78500003 0.34627196 -0.16562223 -0.20484647 0.43508282
-5.8639998 13.116 -0.78600001 0.4151417 -0.12824118 -0.28614327 0.5202561
-5.9109998 13.11 -0.787 0.46013942 -0.07956329 -0.38311028 0.60401332
-5.2389998 13.981 -0.89899999 0.43807256 -0.16591182 -0.35453784 0.58747888
-5.263 13.913 -0.89499998 0.43767184 -0.16626543 -0.35372448 0.58678943
-5.289 13.851 -0.89099997 0.42771378 -0.16222326 -0.34017444 0.57006502
-5.309 13.839 -0.89099997 0.4248015 -0.173141 -0.34340537 0.57302827
-5.3119998 13.717 -0.88200003 0.40851894 -0.20227344 -0.33245695 0.56420732
-5.3379998 13.657 -0.87900001 0.39030424 -0.22313166 -0.31418115 0.54848421
-5.3660002 13.603 -0.87599999 0.37533659 -0.23344964 -0.2946648 0.53122842
-5.3899999 13.54 -0.87199998 0.36255118 -0.25178909 -0.29180178 0.52914023
-5.4190001 13.49 -0.87 0.32436937 -0.28835151 -0.27343851 0.51296264
-5.46 13.469 -0.86900002 0.29495603 -0.31687844 -0.26652211 0.50837493
-5.5050001 13.518 -0.87400001 0.29792747 -0.30228513 -0.25308198 0.49415338
-5.552 13.511 -0.875 0.26940531 -0.32211149 -0.25117546 0.48930985
-5.6079998 13.527 -0.87800002 0.25688571 -0.32496119 -0.2401053 0.47879076
-5.6370001 13.478 -0.875 0.24692047 -0.35398665 -0.26835752 0.50822437
-5.6739998 13.447 -0.87400001 0.24786317 -0.35055432 -0.26392081 0.50396299
-5.7639999 13.366 -0.87099999 0.26887718 -0.32637212 -0.25295204 0.49274582
-5.7950001 13.322 -0.86900002 0.28795916 -0.3150512 -0.26015514 0.49985841
-5.8280001 13.285 -0.86799997 0.30707043 -0.26060173 -0.22668096 0.46215773
-5.842 13.203 -0.86199999 0.32704499 -0.18047047 -0.18268195 0.41581333
-5.882 13.183 -0.86199999 0.35397086 -0.15854234 -0.20308179 0.43780503
-5.9200001 13.155 -0.861 0.41536692 -0.13039401 -0.28611162 0.52095312
-5.987 13.195 -0.866 0.44990537 -0.11365592 -0.38976797 0.60601282
-6.0170002 13.205 -0.86799997 0.43656185 -0.18008353 -0.42141792 0.63293713
-5.151 13.937 -0.991 0.45867071 -0.14926793 -0.39997336 0.62660867
-5.2020001 13.94 -0.99299997 0.45253453 -0.15664944 -0.39467391 0.62055945
-5.2090001 13.824 -0.98400003 0.46171781 -0.14803903 -0.39844847 0.62758273
-5.257 13.819 -0.98500001 0.44852024 -0.14911462 -0.39459154 0.61571753
-5.2639999 13.707 -0.977 0.429066 -0.17965923 -0.38073111 0.60110837
-5.3130002 13.708 -0.97799999 0.42399383 -0.19136561 -0.36791182 0.59308571
-5.2989998 13.608 -0.97000003 0.40664262 -0.22711848 -0.37209558 0.59615111
-5.3340001 13.571 -0.96899998 0.40090823 -0.23611879 -0.36920887 0.59396523
-5.3590002 13.51 -0.96499997 0.3839438 -0.25552243 -0.35239035 0.58041668
-5.3829999 13.447 -0.96100003 0.33950812 -0.31202674 -0.32909423 0.56650639
-5.428 13.435 -0.96100003 0.33170733 -0.32438675 -0.32713935 0.56769413
-5.4780002 13.438 -0.963 0.29923058 -0.34129706 -0.31001526 0.54966539
-5.5339999 13.454 -0.96600002 0.28663892 -0.34331569 -0.30663061 0.54226363
-5.54 13.409 -0.963 0.27158311 -0.35011342 -0.2945478 0.53206694
-5.5640001 13.349 -0.95899999 0.26890171 -0.36047524 -0.29519272 0.53794914
-5.566 13.236 -0.95099998 0.29791525 -0.27278954 -0.23043835 0.46504781
-5.7129998 13.236 -0.95499998 0.30481857 -0.26212707 -0.21605948 0.45640624
-5.7610002 13.23 -0.95700002 0.31383392 -0.22261381 -0.19530952 0.43150255
-5.8039999 13.273 -0.96100003 0.30301404 -0.24136342 -0.20281106 0.43727124
-5.7480001 13.033 -0.94199997 0.26415983 -0.14516634 -0.11882094 0.32399398
-5.7420001 12.91 -0.93199998 0.19063112 -0.20540559 -0.093980759 0.29557413
-5.763 12.848 -0.92900002 0.058883213 -0.27760467 -0.087576717 0.29698697
-5.8070002 12.837 -0.92900002 0.016633891 -0.29934451 -0.097465307 0.31525117
-5.8649998 12.857 -0.93300003 -0.01523641 -0.29189682 -0.090652257 0.30602896
-5.1550002 13.847 -1.069 0.4638415 -0.1626081 -0.43957338 0.65940511
-5.1859999 13.795 -1.066 0.45861629 -0.15058748 -0.43047288 0.64677078
-5.2049999 13.717 -1.0599999 0.45111611 -0.16400179 -0.43768394 0.64959186
-5.2399998 13.679 -1.058 0.42948234 -0.19242807 -0.40495232 0.62086231
-5.2680001 13.625 -1.0549999 0.41599458 -0.22482243 -0.40432906 0.62215644
-5.296 13.569 -1.051 0.41129687 -0.23467882 -0.40584999 0.62366134
-5.3010001 13.52 -1.0470001 0.40503252 -0.2468954 -0.40809229 0.62573797
-5.3189998 13.44 -1.0420001 0.39857846 -0.26679599 -0.40160358 0.62556404
-5.3530002 13.405 -1.04 0.38111627 -0.27347723 -0.38565987 0.60726678
-5.4099998 13.423 -1.043 0.36520284 -0.29400358 -0.36447901 0.59384859
-5.454 13.412 -1.044 0.32388335 -0.31958857 -0.33270329 0.56367433
-5.5029998 13.411 -1.045 0.30486351 -0.33232716 -0.31938484 0.55262083
-5.5240002 13.344 -1.041 0.2851212 -0.35225111 -0.30486125 0.54618251
-5.5170002 13.268 -1.034 0.29998678 -0.31295171 -0.28034115 0.5162577
-5.5339999 13.191 -1.029 0.3286638 -0.23578052 -0.23667389 0.46864367
-5.546 12.881 -1.005 0.3038764 -0.17690443 -0.1468913 0.38106835
-5.5479999 12.774 -0.99599999 0.26676488 -0.30089039 -0.19899172 0.44866049
-5.5910001 12.764 -0.99699998 0.2028657 -0.4020656 -0.26785898 0.52398443
-5.6090002 12.749 -0.99599999 -0.1460309 0.41875362 -0.71432596 0.84079796
-5.665 12.768 -1 -0.092414834 0.42526329 -0.73730314 0.8561573
-5.7030001 12.745 -0.99900001 -0.09353634 0.43024185 -0.73732185 0.85877854
-5.75 12.743 -1.001 -0.074686252 0.45215869 -0.69869202 0.83558124
-5.7969999 12.739 -1.002 -0.074686252 0.45215869 -0.69869202 0.83558124
-5.8400002 12.728 -1.003 -0.075110346 0.45214072 -0.6986059 0.83553755
-5.8870001 12.724 -1.0039999 -0.070664272 0.45007497 -0.70557183 0.83987647
-5.9380002 12.729 -1.006 -0.020470329 0.45472044 -0.7032457 0.83770174
-5.9629998 12.733 -1.008 -0.038628217 0.45459953 -0.70105159 0.83643663
-5.1880002 13.921 -1.164 0.46480158 -0.12895399 -0.52418464 0.71234769
-5.1859999 13.849 -1.158 0.46894151 -0.12721512 -0.52376217 0.7144345
-5.21 13.783 -1.153 0.46257517 -0.12542015 -0.5164178 0.70455188
-5.2810001 13.837 -1.16 0.45902094 -0.14062603 -0.54096735 0.72327143
-5.3010001 13.761 -1.154 0.45283988 -0.15555471 -0.53662467 0.71918511
-5.3270001 13.699 -1.15 0.4454076 -0.18474647 -0.52097625 0.70988411
-5.368 13.677 -1.149 0.42830285 -0.22409311 -0.50821233 0.70138496
-5.3439999 13.492 -1.133 0.4107517 -0.25058156 -0.47169825 0.67380065
-5.3270001 13.385 -1.123 0.39428437 -0.25905275 -0.4204874 0.63196373
-5.3709998 13.374 -1.124 0.39043194 -0.26746511 -0.42071646 0.63322747
-5.428 13.394 -1.127 0.37721318 -0.28553772 -0.41767409 0.63108891
-5.4850001 13.414 -1.131 0.34212282 -0.32208279 -0.38835078 0.60959142
-5.5 13.33 -1.124 0.31660259 -0.32860526 -0.33355767 0.56522506
-5.5139999 13.246 -1.118 0.35263261 -0.26042116 -0.3050155 0.53404438
-5.5240002 13.154 -1.11 0.36927822 -0.17199288 -0.24852636 0.47719318
-5.5240002 12.868 -1.086 0.37147895 -0.22730416 -0.26669008 0.51067346
-5.5170002 12.739 -1.075 0.25975546 -0.38431385 -0.30827922 0.55696148
-5.5609999 12.733 -1.076 0.22582319 -0.41230571 -0.31596825 0.56641686
-5.6079998 12.73 -1.0779999 0.22260323 -0.41193566 -0.31592518 0.56484681
-5.651 12.719 -1.0779999 -0.13643233 0.44581428 -0.66830802 0.81486177
-5.7010002 12.723 -1.08 -0.089104407 0.45990792 -0.67452443 0.8212418
-5.723 12.72 -1.081 -0.089093007 0.45927122 -0.67452091 0.82088125
-5.7740002 12.725 -1.0829999 -0.078027256 0.45413136 -0.69154698 0.83099985
-5.8210001 12.723 -1.085 -0.083164603 0.46133247 -0.67142987 0.81887853
-5.8629999 12.709 -1.085 -0.05119184 0.47057483 -0.6681118 0.81880075
-5.908 12.703 -1.087 -0.023344606 0.4756915 -0.66064841 0.81442231
-5.9530001 12.695 -1.0880001 0.0053901691 0.49215287 -0.59613431 0.77305859
-5.1890001 13.845 -1.252 0.4573448 -0.12306618 -0.57607359 0.74576831
-5.23 13.823 -1.251 0.45825174 -0.13314342 -0.56688517 0.74099976
-5.2480001 13.74 -1.244 0.45193535 -0.13864057 -0.58292252 0.7505101
-5.2680001 13.664 -1.238 0.4384695 -0.17992499 -0.572945 0.74356872
-5.2800002 13.632 -1.2359999 0.42913109 -0.20222664 -0.57352054 0.74429494
-5.2800002 13.506 -1.224 0.41117081 -0.2375531 -0.5449658 0.72282827
-5.2989998 13.43 -1.2180001 0.40761948 -0.23954968 -0.5141027 0.69845492
-5.3249998 13.374 -1.214 0.40334898 -0.25296703 -0.48676628 0.6808995
-5.3740001 13.374 -1.215 0.41740742 -0.22506776 -0.47874206 0.6738534
-5.4219999 13.372 -1.217 0.41591728 -0.22602904 -0.46534777 0.66379583
-5.4850001 13.406 -1.223 0.39606413 -0.26220858 -0.44639033 0.65183163
-5.4889998 13.355 -1.2180001 0.40679285 -0.24072319 -0.42068505 0.63277483
-5.5089998 13.287 -1.2130001 0.35608116 -0.30269286 -0.40996757 0.62168336
-5.5219998 13.2 -1.205 0.39484423 -0.19251701 -0.31631687 0.54131424
-5.526 13.094 -1.196 0.43276364 -0.10915676 -0.33608353 0.55870539
-5.5479999 12.81 -1.171 0.32324821 -0.30596322 -0.29187188 0.53225189
-5.5419998 12.741 -1.164 -0.25256467 0.41055882 -0.61367023 0.78034514
-5.5869999 12.734 -1.166 -0.20945106 0.43650219 -0.61407381 0.78197861
-5.6300001 12.724 -1.166 -0.22911938 0.41952834 -0.65752488 0.81291986
-5.678 12.724 -1.168 -0.16858099 0.45013589 -0.64416045 0.80373162
-5.73 12.732 -1.171 -0.16858099 0.45013589 -0.64416045 0.80373162
-5.7680001 12.71 -1.171 -0.095953025 0.47276405 -0.62943536 0.79303324
-5.8200002 12.719 -1.174 -0.037170224 0.47619188 -0.63966429 0.79831743
-5.8470001 12.724 -1.175 -0.034648895 0.4819099 -0.639736 0.80168563
-5.8870001 12.706 -1.175 -0.0051359483 0.49188146 -0.60143328 0.77697861
-5.1420002 13.898 -1.346 0.43101329 -0.16133471 -0.63692516 0.78579581
-5.2490001 13.917 -1.352 0.43157578 -0.16785173 -0.63925982 0.7893573
-5.2319999 13.741 -1.334 0.43495026 -0.15195006 -0.62917888 0.77983111
-5.257 13.678 -1.329 0.43075171 -0.16643631 -0.63018149 0.78126615
-5.289 13.632 -1.326 0.42479649 -0.18683909 -0.62323034 0.77703089
-5.3200002 13.585 -1.323 0.4193514 -0.20167115 -0.61424059 0.77059609
-5.3280001 13.544 -1.319 0.41987953 -0.21018676 -0.6022594 0.76367116
-5.3509998 13.477 -1.313 0.41978487 -0.2230168 -0.57145691 0.74331611
-5.349 13.349 -1.301 0.42393485 -0.20166869 -0.51492864 0.69680882
-5.4039998 13.365 -1.3049999 0.42341802 -0.19435659 -0.51238137 0.6925258
-5.473 13.415 -1.312 0.42228663 -0.21556364 -0.53041589 0.71143144
-5.4959998 13.35 -1.307 0.43061343 -0.20596641 -0.49855906 0.69022548
-5.5120001 13.212 -1.294 0.42254049 -0.20477238 -0.43376535 0.63923746
-5.4710002 12.996 -1.272 0.45440042 -0.13732065 -0.48837155 0.68106055
-5.5209999 12.776 -1.252 -0.26055533 0.42544207 -0.5122574 0.71505082
-5.5510001 12.735 -1.25 -0.24688949 0.43186796 -0.51885855 0.71880352
-5.5999999 12.739 -1.252 -0.23144074 0.43805268 -0.58821082 0.7690559
-5.6459999 12.736 -1.2539999 -0.22245857 0.44109106 -0.59374952 0.77239084
-5.6680002 12.731 -1.2539999 -0.21127644 0.44221205 -0.61403501 0.78563875
-5.7199998 12.74 -1.257 -0.13524602 0.47508129 -0.58172053 0.76314646
-5.7589998 12.72 -1.257 -0.10878973 0.48403573 -0.56074673 0.74870735
-5.8099999 12.726 -1.26 -0.067248709 0.49363938 -0.57537371 0.76108944
-5.8520002 12.713 -1.261 -0.014813363 0.49419168 -0.58990252 0.76969469
-5.902 12.714 -1.263 -0.01868362 0.49837804 -0.56675792 0.75494659
-5.263 13.993 -1.4579999 0.40776527 -0.15272847 -0.69496304 0.82010496
-5.2979999 13.952 -1.455 0.40177596 -0.17777506 -0.68029326 0.80983132
-5.3299999 13.904 -1.452 0.40400842 -0.18916383 -0.66617668 0.80174631
-5.3569999 13.844 -1.447 0.41057616 -0.16996132 -0.67004412 0.80400169
-5.3829999 13.783 -1.441 0.40985405 -0.16150504 -0.67934012 0.80967104
-5.415 13.738 -1.438 0.40139961 -0.17342895 -0.67770529 0.80652571
-5.902 12.752 -1.359 -0.013596505 0.50244731 -0.52104688 0.72396684
-5.303 13.893 -1.541 0.39960447 -0.15286583 -0.70962578 0.82862562
-5.329 13.83 -1.535 0.39200264 -0.15874346 -0.71976316 0.83482009
-5.3610001 13.781 -1.531 0.40719554 -0.17622431 -0.67193133 0.80520493
-5.388 13.724 -1.526 0.40135202 -0.1762289 -0.68138647 0.81020218
-5.414 13.664 -1.521 0.39092395 -0.16863374 -0.70224154 0.82121986
-5.4419999 13.608 -1.516 0.40213731 -0.16183016 -0.68671012 0.81208014
-5.4650002 13.543 -1.51 0.39909527 -0.17874423 -0.68362814 0.8115257
-5.4629998 13.476 -1.502 0.39243454 -0.1991971 -0.67875469 0.80894518
-5.5029998 13.333 -1.489 0.4043155 -0.21613757 -0.6168378 0.76855409
-5.527 13.157 -1.471 0.45605317 -0.097645439 -0.49875921 0.6828469
-5.5240002 12.864 -1.439 0.43563217 -0.18735661 -0.56746107 0.73952007
-5.5669999 12.742 -1.428 -0.2064503 0.45399448 -0.4825663 0.69397616
-5.6539998 12.721 -1.4299999 -0.16026264 0.47010317 -0.47622165 0.68809026
-5.6399999 12.584 -1.415 -0.07467401 0.49549791 -0.49372929 0.70346498
-6.0019999 12.692 -1.444 0.035627905 0.49547452 -0.5250122 0.72277391
-6.0539999 12.699 -1.447 -0.052576028 0.49455428 -0.4470318 0.66871935
-6.1020002 12.748 -1.455 -0.069835067 0.49685335 -0.44113508 0.66808707
