# .PCD v0.7 - Point Cloud Data file format
VERSION 0.7
FIELDS x y z normal_x normal_y normal_z curvature
SIZE 4 4 4 4 4 4 4
TYPE F F F F F F F
COUNT 1 1 1 1 1 1 1
WIDTH 62
HEIGHT 1
VIEWPOINT 0 0 0 1 0 0 0
POINTS 62
DATA ascii
2.878 21.466 -0.097999997 0.34087029 0.15887867 -0.067942321 0.38216639
2.812 21.487 -0.097999997 0.20103306 -0.16161391 -0.04128328 0.26122338
2.7449999 21.497999 -0.097999997 -0.01254224 0.47514883 -0.67326397 0.82414085
2.71 21.492001 -0.097999997 -0.020599596 0.47732124 -0.67441106 0.82649267
2.641 21.490999 -0.097999997 0.010911837 0.46546376 -0.69872493 0.83963811
2.573 21.499001 -0.097999997 0.044979669 0.43273625 -0.76509368 0.88014328
2.5039999 21.495001 -0.097999997 0.096129075 0.39604387 -0.8123281 0.90882808
2.4360001 21.499001 -0.097999997 0.12356247 -0.33628333 -0.13779044 0.38384941
2.368 21.497999 -0.097999997 0.11667167 -0.34605563 -0.15109456 0.39521682
2.3 21.502001 -0.097999997 -0.24193403 -0.33562213 -0.030400604 0.41484755
2.266 21.500999 -0.097000003 -0.23803902 -0.32679018 -0.023445189 0.40497416
2.1960001 21.483999 -0.097000003 -0.26147678 -0.31514534 -0.01164332 0.40966114
2.128 21.485001 -0.097000003 -0.2697635 -0.30910733 -0.0065206289 0.41031963
2.0610001 21.5 -0.097000003 -0.27117649 -0.29987007 0.00029981136 0.40430042
1.993 21.504 -0.097000003 -0.27498659 -0.25372437 0.029694349 0.37533379
1.925 21.502001 -0.097000003 -0.26141876 -0.24078546 0.024664611 0.35626641
1.857 21.502001 -0.097000003 -0.27114394 -0.22735254 0.03185159 0.3552784
1.822 21.493 -0.097000003 -0.27196637 -0.22446334 0.033288062 0.35419992
1.755 21.499001 -0.097000003 -0.26462254 -0.31104183 -0.029210389 0.40942076
1.687 21.504 -0.097000003 -0.26846865 -0.0033447756 0.078802437 0.27981499
1.619 21.497 -0.097000003 -0.26853681 5.3661468e-05 0.078809172 0.27986228
1.55 21.486 -0.096000001 -0.26917878 0.011342925 0.078666061 0.28066748
1.482 21.485001 -0.096000001 -0.26904309 0.0090014907 0.078716755 0.28046665
1.414 21.486 -0.096000001 -0.25216931 -0.12444032 0.062941849 0.28816041
1.38 21.476 -0.096000001 -0.27214321 0.0039442088 0.080895305 0.2839393
1.312 21.476 -0.096000001 -0.27203009 0.0021370382 0.080915421 0.28381726
1.243 21.454 -0.096000001 -0.27203009 0.0021370382 0.080915421 0.28381726
1.174 21.43 -0.094999999 -0.27600655 -0.00012417091 0.083242029 0.28828609
1.1059999 21.422001 -0.094999999 -0.27628246 0.0020338832 0.083208561 0.28854775
1.039 21.423 -0.094999999 -0.27625757 0.0018594679 0.083211601 0.28852361
0.97100002 21.406 -0.094999999 -0.27578557 -0.00058023445 0.083247483 0.28807664
2.9549999 21.152 -0.243 0.4069061 0.04006397 -0.10845774 0.42301393
2.651 21.427999 -0.248 -0.027567886 0.47234881 -0.68307501 0.83094215
2.618 21.436001 -0.248 -0.02734039 0.45213208 -0.72576934 0.85551858
2.5510001 21.445999 -0.248 -0.0060776547 0.44243124 -0.73801589 0.86049396
2.471 21.344999 -0.245 0.10978407 -0.34051424 -0.14504012 0.38605586
2.4089999 21.393999 -0.24600001 0.088595062 -0.32055256 -0.12636235 0.35576746
2.336 21.358 -0.245 -0.025504597 -0.32437092 -0.11982515 0.34673485
2.263 21.302999 -0.244 -0.17303438 -0.29300067 -0.04015556 0.34264085
2.1989999 21.344 -0.245 -0.16723052 -0.28398979 -0.035036534 0.33142692
2.1589999 21.280001 -0.243 -0.15874155 -0.25934118 -0.020388842 0.30474979
2.086 21.226999 -0.242 -0.18733722 -0.22054762 0.022486895 0.29024497
2.026 21.305 -0.244 -0.19992788 -0.20835707 0.028293461 0.29014537
1.944 21.142 -0.23999999 -0.17837539 -0.17311208 0.045217305 0.25264636
1.874 21.110001 -0.23899999 -0.27233058 0.014528621 0.079697907 0.28412458
1.8049999 21.084 -0.23899999 -0.27074987 0.011897115 0.079761356 0.28250471
1.706 20.705 -0.23100001 -0.25511834 0.0093846936 0.070010304 0.26471663
1.665 20.608 -0.228 -0.26809672 0.0081933141 0.077775061 0.27927038
1.601 20.611 -0.228 -0.26812661 0.0082712136 0.077773094 0.27930081
1.544 20.728001 -0.23100001 -0.25546631 0.010813665 0.069976121 0.26509741
1.471 20.618999 -0.228 -0.2606293 0.0053840531 0.073189348 0.27076429
1.405 20.601999 -0.228 -0.26037112 0.004751646 0.073205054 0.27050817
1.339 20.587999 -0.228 -0.26061627 0.0059202285 0.073175341 0.27075917
1.272 20.558001 -0.227 -0.26420346 0.0024895258 0.075680017 0.27484018
1.207 20.559999 -0.227 -0.26429909 0.0029675476 0.075668603 0.27493373
1.173 20.530001 -0.226 -0.25162554 0.0089682117 0.067856163 0.26076868
1.108 20.525 -0.226 -0.25132191 0.0074282954 0.067894727 0.26043728
1.044 20.539 -0.226 -0.25126743 0.0097345877 0.067834914 0.26044512
0.97899997 20.534 -0.226 -0.25167495 0.015922822 0.067622185 0.2610873
0.91500002 20.547001 -0.226 -0.24890003 0.010482906 0.066454768 0.25783202
2.9200001 21.516001 -0.361 0.27801853 0.13814081 -0.044204056 0.31357804
2.852 21.523001 -0.361 -0.051833019 0.49177223 -0.57753128 0.76030844
