# .PCD v0.7 - Point Cloud Data file format
VERSION 0.7
FIELDS x y z normal_x normal_y normal_z curvature
SIZE 4 4 4 4 4 4 4
TYPE F F F F F F F
COUNT 1 1 1 1 1 1 1
WIDTH 122
HEIGHT 1
VIEWPOINT 0 0 0 1 0 0 0
POINTS 122
DATA ascii
-44.019001 -6.3509998 1.7130001 -0.10204905 0.36165318 -0.13714507 0.40001974
-43.449001 -6.408 1.694 -0.00064334273 0.23107392 -0.48970658 0.54148692
-43.398998 -6.54 1.693 -0.014257073 0.26174062 -0.47193867 0.53984952
-43.303001 -6.665 1.691 -0.0096648037 0.26971313 -0.47782207 0.54877365
-43.316002 -7.4349999 1.6950001 0.010000259 0.23599088 -0.60484558 0.64933038
-43.199001 -7.6950002 1.693 0.01783219 0.38260943 -0.44323608 0.58580387
-43.043999 -7.737 1.688 -0.40383831 0.52864742 -0.13569073 0.67894435
-42.577 -7.7909999 1.673 0.12915143 -0.011610255 -0.3894524 0.41047296
-42.537998 -7.9219999 1.6720001 0.13449752 0.0086747482 -0.38147515 0.4045839
-42.729 -8.0959997 1.6799999 0.10350123 -0.14166221 -0.27694365 0.32783911
-42.801998 -8.25 1.683 0.080540568 -0.18489705 -0.43638757 0.48073673
-43.056 -8.4390001 1.693 -0.68097019 0.23954967 -0.057994962 0.72420156
-42.799999 -8.5290003 1.6849999 0.094301641 0.35326561 -0.24463452 0.43992662
-42.882999 -8.6149998 1.688 0.1023128 0.35355279 -0.25123888 0.44563267
-44.064999 -6.178 1.431 -0.076998621 0.30692598 -0.16085306 0.35497332
-43.925999 -6.2989998 1.428 -0.098812968 0.3316384 -0.13908485 0.37295124
-43.762001 -6.4159999 1.424 -0.12006506 0.29297745 -0.025684029 0.31766504
-43.528 -6.5219998 1.418 -0.075952947 0.37161735 -0.25870857 0.45912787
-43.444 -6.6490002 1.416 0.088764071 0.043375865 -0.3362883 0.35050014
-43.358002 -6.7750001 1.414 -0.16706614 -0.33230534 -0.041975483 0.3742992
-43.617001 -6.9559999 1.4220001 0.056205899 -0.171976 -0.2476458 0.3066974
-43.544998 -7.296 1.4220001 0.04277283 0.10048464 -0.56394702 0.57442397
-42.859001 -7.3200002 1.403 -0.017962068 -0.26146606 -0.26183379 0.37046468
-43.226002 -7.6620002 1.415 0.036505342 0.25621802 -0.10776131 0.2803441
-42.651001 -7.6989999 1.4 -0.0035630465 0.20365095 -0.59815502 0.63188279
-42.637001 -7.7649999 1.399 0.00082293153 0.1890237 -0.59833801 0.62748629
-42.605999 -7.8979998 1.399 0.047207922 0.0261329 -0.54548788 0.54815012
-42.606998 -8.0369997 1.4 0.099640012 0.010384694 -0.44742155 0.45849976
-42.666 -8.1870003 1.402 -0.10873583 -0.27019113 -0.085023463 0.30340686
-42.971001 -8.3850002 1.4119999 -0.5731045 0.49495441 -0.17143507 0.77641392
-42.380001 -8.408 1.396 -0.60653818 0.094414786 0.088870347 0.62024242
-42.390999 -8.5489998 1.397 -0.61591792 0.4096424 -0.088665634 0.74499893
-42.659 -8.6730003 1.405 -0.045499384 -0.28152534 -0.22369163 0.36244264
-43.206001 -8.9250002 1.421 -0.5779925 0.61431205 -0.45846903 0.96002525
-43.283001 -9.0830002 1.424 0.22219482 0.1177416 -0.36883464 0.44639963
-43.448002 -6.316 1.2079999 -0.21443643 0.15376583 0.13449281 0.29616758
-43.264 -6.428 1.204 -0.2440623 0.17816217 0.15040183 0.33753353
-43.575001 -6.6149998 1.212 0.061713398 0.19660643 -0.26710835 0.33735663
-43.351002 -6.8590002 1.2079999 -0.68650973 0.44062907 -0.21957965 0.84478688
-43.557999 -7.033 1.2130001 0.032388985 -0.21517627 -0.3160249 0.38369468
-43.632999 -7.1849999 1.215 0.013375282 -0.10827745 -0.53154331 0.54262435
-43.688 -7.2649999 1.217 0.015997827 -0.10480501 -0.53432834 0.54474473
-43.866001 -7.4369998 1.222 -0.42077228 0.11864696 0.1774801 0.47183219
-43.061001 -7.4390001 1.204 -0.7755844 0.38517165 -0.23390187 0.89699411
-42.951 -7.559 1.202 2.0563602e-05 0.25344193 -0.53282875 0.59003329
-42.903 -7.6890001 1.201 -0.51912725 -0.075022772 0.17019132 0.55144048
-42.942001 -7.836 1.202 -0.16357777 0.31341505 -0.68398809 0.76995218
-42.953999 -7.9770002 1.2029999 0.033582658 0.17535423 -0.554649 0.58267695
-42.792 -8.0170002 1.2 -0.68137145 0.00063087791 0.092659682 0.68764329
-42.834999 -8.1639996 1.201 -0.025328547 0.23232123 -0.63761783 0.67909586
-42.68 -8.2740002 1.198 -0.41079068 0.032603651 0.16846442 0.44518787
-42.529999 -8.3830004 1.196 0.019556701 0.39860958 -0.28541893 0.49064857
-42.57 -8.5299997 1.197 0.027796328 -0.2223368 -0.26475352 0.34684393
-42.771 -8.71 1.202 -0.6933955 0.50200629 -0.22251837 0.88448972
-42.912998 -8.8800001 1.206 -0.58397877 0.62709224 -0.41169742 0.95066851
-43.210999 -9.0129995 1.214 -0.57472312 0.61546534 -0.46085954 0.95994568
-43.514 -6.7420001 0.87800002 -0.18319701 0.41627377 -0.39881894 0.60489798
-42.946999 -6.7919998 0.86900002 -0.037264198 0.28029865 -0.41832089 0.50492406
-42.935001 -6.9289999 0.86900002 -0.085858852 0.26439884 -0.53063846 0.59904563
-42.882 -7.059 0.86900002 -0.12077203 0.27261615 -0.56283408 0.63693613
-42.707001 -7.1680002 0.866 -0.14461344 0.34191895 -0.53516114 0.65132099
-42.609001 -7.2199998 0.86500001 -0.16634303 0.37844327 -0.51154292 0.65769708
-43.105 -7.4429998 0.87300003 -0.77779847 0.39150983 -0.22530499 0.89945138
-43.221001 -7.6030002 0.875 -0.27725363 0.094096184 0.19782126 0.353351
-43.23 -7.7449999 0.87599999 -0.48834026 0.096077219 0.19912067 0.53605604
-43.326 -7.902 0.87800002 -0.66907853 0.040035114 0.13547266 0.68382871
-43.036999 -7.9899998 0.87400001 0.033591986 0.25401652 -0.46468794 0.53064841
-43.064999 -8.1350002 0.87400001 -0.11166364 0.3666628 -0.60920131 0.7197476
-42.987 -8.1899996 0.87300003 0.018817127 0.23576704 -0.54025519 0.58975911
-43.500999 -8.4300003 0.88200003 -0.21413396 0.53222346 0.055018872 0.57631785
-43.285999 -8.5290003 0.87900001 -0.18095271 0.52614641 0.049769104 0.55861515
-42.436001 -8.5010004 0.866 0.1042766 0.1935724 -0.35978711 0.42165229
-42.445999 -8.6409998 0.86699998 0.10733134 0.20674092 -0.35374177 0.42355052
-42.445999 -8.7799997 0.86699998 0.062272161 0.11802029 -0.56654328 0.58204633
-43.488998 -6.5910001 0.65200001 -0.44555217 -0.1876346 0.16974348 0.51238298
-43.806 -6.7800002 0.65499997 -0.70107615 0.2531493 -0.013387173 0.74550086
-43.626999 -6.8930001 0.65399998 -0.34613064 0.34780622 -0.63048339 0.79892731
-43.299999 -6.9099998 0.64999998 -0.41570225 0.42917648 -0.53944683 0.80498677
-43.042999 -7.0079999 0.648 -0.044479698 0.27970228 -0.48196614 0.55901986
-42.895 -7.1220002 0.64700001 -0.15636039 0.20953633 -0.65215349 0.70260817
-42.863998 -7.256 0.64700001 -0.64579153 0.17116359 0.15606016 0.68607467
-43.002998 -7.4180002 0.648 0.028621167 -0.15849271 -0.35223377 0.38730833
-43.445999 -7.6360002 0.653 -0.65764058 0.23928791 0.11063525 0.70851254
-42.368999 -7.927 0.64300001 -0.40078783 0.073514476 0.2183798 0.46230403
-42.632 -8.1149998 0.64600003 -0.65989888 0.43119034 -0.040979102 0.78934842
-43.192001 -8.3629999 0.65200001 -0.085941583 -0.19485319 -0.15216872 0.26174232
-42.57 -8.5200005 0.64600003 0.021696568 0.1013182 -0.52118427 0.53138417
-42.549999 -8.585 0.64600003 0.029741913 0.1033838 -0.53214341 0.54290831
-42.605 -8.7360001 0.64700001 0.02581498 0.14925657 -0.49787515 0.52040714
-43.292999 -6.96 0.345 -0.63953817 -0.15997878 0.11674947 0.66950184
-43.466 -7.0580001 0.34599999 -0.47449705 0.36808467 -0.60147756 0.8499465
-43.362 -7.1810002 0.345 -0.64808702 -0.12166894 0.15108782 0.67649662
-43.132999 -7.283 0.345 -0.74060971 0.1223537 0.10562569 0.75804353
-43.198002 -7.4330001 0.345 -0.082187265 0.27397728 -0.54017711 0.61123616
-43.105999 -7.5570002 0.345 0.0091015697 0.17020416 -0.4964045 0.5248521
-43.063999 -7.6890001 0.345 -0.093542904 0.44200563 -0.27096584 0.52682233
-42.609001 -7.7459998 0.34299999 -0.79096043 0.16592084 0.041808248 0.80925649
-42.613998 -7.8169999 0.34299999 -0.78356463 0.17592539 0.03309685 0.8037529
-42.721001 -7.9749999 0.34400001 -0.7850163 0.2911576 -0.037750915 0.83812201
-43.098999 -8.1850004 0.345 0.01265046 0.39688611 -0.12883918 0.41746634
-42.980999 -8.3030005 0.345 0.06444943 0.3201842 -0.23301852 0.40120977
-42.898998 -8.427 0.345 0.037681758 0.38847268 -0.29715434 0.4905422
-42.897999 -8.5670004 0.345 0.016418487 0.44748002 -0.24254248 0.50924927
-42.949001 -8.7180004 0.345 -0.48640013 0.22185595 0.26395863 0.59622085
-43.578999 -7.2189999 0.138 0.070230782 0.1202669 -0.29497531 0.32620075
-43.554001 -7.355 0.138 0.053782225 0.16915262 -0.19626603 0.26462328
-43.376999 -7.4650002 0.138 -0.068863511 0.38171789 -0.31593922 0.50026822
-43.310001 -7.5939999 0.138 -0.16569638 0.50324351 -0.20921212 0.56963062
-43.061001 -7.6900001 0.139 -0.047644615 0.32834285 -0.45451999 0.56273216
-42.852001 -7.7909999 0.139 -0.55537307 -0.1113909 0.17740634 0.59356564
-42.705002 -7.9029999 0.139 -0.79140413 0.17547414 0.044776678 0.81185997
-43.084 -8.0439997 0.139 0.043584436 0.043860115 -0.32897708 0.33473754
-43.23 -8.2110004 0.138 0.0097638369 -0.040310338 -0.3143059 0.31703067
-43.382 -8.382 0.138 -0.11113521 0.41770631 0.10239646 0.44420111
-43.110001 -8.4700003 0.138 -0.036600918 0.41553336 -0.45141202 0.61463845
-43.117001 -8.6120005 0.138 -0.62512815 0.046035469 0.20895751 0.66073269
-42.803001 -8.6890001 0.139 -0.6274848 0.077440128 0.23774514 0.67546791
-43.026001 -8.9460001 0.138 -0.35438445 0.4030928 0.2341819 0.58558798
-43.278999 -7.2909999 -0.14 -0.092129886 0.24643119 0.027379841 0.26451069
-43.153999 -7.4089999 -0.139 -0.047125548 0.24594446 -0.015703082 0.25091049
-43.234001 -7.5630002 -0.14 -0.13644338 0.35912457 0.00028344989 0.38417095
-43.101002 -8.309 -0.14 0.073341906 0.19812708 -0.20346512 0.29331115
