# .PCD v0.7 - Point Cloud Data file format
VERSION 0.7
FIELDS x y z normal_x normal_y normal_z curvature
SIZE 4 4 4 4 4 4 4
TYPE F F F F F F F
COUNT 1 1 1 1 1 1 1
WIDTH 242
HEIGHT 1
VIEWPOINT 0 0 0 1 0 0 0
POINTS 242
DATA ascii
-2.2349999 17.247 0.26199999 0.041527774 0.48719573 -0.47290686 0.68023902
-2.3099999 17.184999 0.26100001 0.033675883 0.49639481 -0.48097405 0.69201005
-2.3759999 17.268999 0.26199999 0.022029474 0.50219935 -0.48933581 0.70152622
-2.441 17.336 0.26199999 0.02279745 0.49445006 -0.5026558 0.70545262
-2.4949999 17.325001 0.26199999 0.027921494 0.50054699 -0.53245187 0.73132199
-2.552 17.332001 0.26199999 0.027744487 0.49599594 -0.57022202 0.75626379
-2.608 17.337999 0.26199999 0.030268129 0.50255603 -0.55504757 0.74937075
-2.652 17.261 0.26199999 -0.0085175838 0.50735593 -0.43366808 0.66749579
-2.6930001 17.344999 0.26199999 -0.051957168 0.51396197 -0.44968909 0.68489176
-2.747 17.334999 0.26199999 -0.046209991 0.51312995 -0.44401345 0.6801365
-2.7969999 17.297001 0.26199999 -0.012160175 0.51924872 -0.49875697 0.72008723
-2.8599999 17.343 0.26199999 -0.0102735 0.5340122 -0.56935579 0.78066677
-2.915 17.334 0.26199999 -0.020815307 0.52554226 -0.60555053 0.80207193
-2.9690001 17.325001 0.26199999 -0.026941087 0.52775699 -0.60829794 0.80577892
-3.0079999 17.229 0.26199999 0.0086454973 0.50816983 -0.63554639 0.81377548
-3.043 17.264999 0.26199999 0.0034630867 0.52088952 -0.63455826 0.82097626
-3.1140001 17.351999 0.26199999 -0.022245897 0.52944034 -0.64539492 0.83506685
-3.1730001 17.368 0.26199999 0.0038742665 0.53191698 -0.65205204 0.84150016
-3.2160001 17.292999 0.26199999 0.002205912 0.53264326 -0.64993238 0.84031296
-3.2739999 17.302 0.26199999 0.013696949 0.51703173 -0.69093883 0.86307931
-3.335 17.329 0.26199999 -0.023711041 0.54073334 -0.62147385 0.82412648
-3.6919999 17.275 0.26199999 -0.087488696 0.5372346 -0.36552495 0.65565521
-3.7479999 17.268999 0.26300001 -0.088912092 0.53387642 -0.37768137 0.65997922
-3.779 17.283001 0.26300001 -0.083368674 0.53413832 -0.37511051 0.65799844
-3.832 17.263 0.26300001 -0.086657211 0.53174877 -0.37927398 0.65887403
-3.8859999 17.253 0.26300001 -0.099931844 0.52595824 -0.38979971 0.66224033
-3.9419999 17.247 0.26300001 -0.092540041 0.52172619 -0.39029399 0.65809673
-3.9960001 17.233999 0.26300001 -0.092540041 0.52172619 -0.39029399 0.65809673
-4.0489998 17.218 0.26300001 -0.092534438 0.5232358 -0.38649273 0.65705019
-4.1079998 17.224001 0.26300001 -0.079558223 0.52509093 -0.38481182 0.65584308
-4.132 17.208 0.26300001 -0.090585783 0.5220229 -0.37993336 0.6519686
-4.1880002 17.202999 0.26300001 -0.085813239 0.5214408 -0.37426716 0.64756495
-1.6109999 17.073 0.18000001 0.10423455 0.46353951 -0.55374908 0.7296381
-1.693 17.351999 0.17900001 0.094011068 0.47147623 -0.55942285 0.73761898
-1.732 17.188 0.18000001 0.095508255 0.46737826 -0.53701019 0.71829259
-1.784 17.164 0.18000001 0.088484257 0.46012211 -0.60807347 0.76765567
-1.839 17.167999 0.18000001 0.087849438 0.46222854 -0.59996051 0.76244694
-1.8940001 17.176001 0.18000001 0.077341989 0.46323118 -0.60369766 0.76486325
-1.951 17.195999 0.18000001 0.042847503 0.47484067 -0.58941031 0.75809896
-1.984 17.247 0.18000001 -0.0049584694 0.4804765 -0.60005724 0.76873332
-2.0380001 17.232 0.18000001 -0.0066713244 0.48259082 -0.59835529 0.76874411
-2.0929999 17.233999 0.18000001 0.027723782 0.47742933 -0.58994818 0.7594381
-2.148 17.235001 0.18000001 0.026395753 0.47834882 -0.58901352 0.75924385
-2.207 17.268 0.17900001 0.016698092 0.49231461 -0.5294891 0.72319514
-2.2650001 17.287001 0.17900001 0.027753741 0.49090493 -0.52599376 0.72001898
-2.3440001 17.261999 0.17900001 0.017950699 0.50000757 -0.53661472 0.73367918
-2.415 17.368999 0.17900001 0.013061222 0.49564815 -0.52296627 0.7206465
-2.467 17.348 0.17900001 0.022678919 0.50031948 -0.53018653 0.72933644
-2.516 17.305 0.17900001 0.024899609 0.50548953 -0.53544217 0.7367754
-2.5869999 17.407 0.17900001 0.021817155 0.51583493 -0.54891765 0.753573
-2.641 17.389 0.17900001 0.010870852 0.50771523 -0.62857151 0.80808115
-2.6819999 17.294001 0.17900001 -0.0098148007 0.48229954 -0.66172981 0.81889898
-2.724 17.384001 0.17900001 -0.048439115 0.52323467 -0.44404587 0.68796623
-2.786 17.423 0.17900001 -0.028644051 0.53196281 -0.49780232 0.72911727
-2.823 17.309999 0.17900001 -0.011831878 0.5207119 -0.57937318 0.77907264
-2.8900001 17.374001 0.17900001 -0.013509131 0.52727598 -0.61963427 0.81372547
-2.9530001 17.414 0.17900001 -0.030778691 0.53752899 -0.61586475 0.81803066
-3.0050001 17.389 0.17900001 -0.014205256 0.53460646 -0.62752664 0.8244971
-3.0469999 17.309999 0.17900001 -0.0097141974 0.5161714 -0.65120161 0.83101791
-3.0840001 17.361 0.17900001 -0.022245897 0.52944034 -0.64539492 0.83506685
-3.152 17.422001 0.17900001 -0.026202079 0.52507383 -0.66385734 0.84681499
-3.21 17.427 0.17900001 0.0019677086 0.53224289 -0.65004861 0.84014857
-3.244 17.309 0.17900001 0.002205912 0.53264326 -0.64993238 0.84031296
-3.2969999 17.292999 0.17900001 0.013696949 0.51703173 -0.69093883 0.86307931
-3.3670001 17.365 0.17900001 0.0042553497 0.55277145 -0.5589425 0.78612411
-3.737 17.363001 0.17900001 -0.082370788 0.54143083 -0.40185156 0.67927682
-3.789 17.339001 0.17900001 -0.073843926 0.54609656 -0.44556585 0.70866305
-3.8069999 17.292 0.17900001 -0.07639005 0.54577905 -0.44774771 0.71006215
-3.8659999 17.302 0.17900001 -0.097076423 0.54187214 -0.46962833 0.72360212
-3.9200001 17.290001 0.17900001 -0.088955387 0.53365809 -0.47236595 0.71821558
-3.974 17.273001 0.17900001 -0.10625105 0.52689093 -0.43446109 0.69112939
-4.0279999 17.261 0.17900001 -0.10448012 0.52954793 -0.43424597 0.69275296
-4.0879998 17.271 0.17900001 -0.10448012 0.52954793 -0.43424597 0.69275296
-4.145 17.271999 0.17900001 -0.098812982 0.53139102 -0.43975902 0.69679868
-4.1680002 17.247999 0.17900001 -0.098812982 0.53139102 -0.43975902 0.69679868
-1.559 17.115 0.07 0.15653805 0.43882114 -0.52859098 0.70461094
-1.605 17.030001 0.071000002 0.10915186 0.4622106 -0.54924285 0.72609949
-1.6569999 17.000999 0.071000002 0.10423455 0.46353951 -0.55374908 0.7296381
-1.699 17.164 0.07 0.089347467 0.46938902 -0.55749512 0.73424101
-1.756 17.181999 0.07 0.074917056 0.46739656 -0.58376461 0.75156718
-1.812 17.197001 0.07 0.062949345 0.46862483 -0.604761 0.76766384
-1.868 17.212999 0.068999998 0.074757189 0.46103889 -0.62144864 0.77739561
-1.925 17.229 0.068999998 0.077040821 0.46616885 -0.59044552 0.75622392
-1.98 17.236 0.068999998 -0.0077672862 0.48812935 -0.55599266 0.73990434
-2.036 17.246 0.068999998 -0.0064513236 0.49045053 -0.54724598 0.73488873
-2.066 17.263 0.068999998 0.0031207465 0.48852634 -0.55552125 0.73977804
-2.1229999 17.282 0.068999998 0.034106325 0.48294887 -0.54497463 0.72897202
-2.1800001 17.292999 0.068999998 0.024495814 0.4869751 -0.56297672 0.74477351
-2.2379999 17.318001 0.068000004 0.039752733 0.48398563 -0.56484544 0.74489784
-2.2950001 17.332001 0.068000004 0.029048488 0.49181363 -0.55359244 0.74107289
-2.3340001 17.212 0.068999998 0.027245428 0.49288586 -0.55959088 0.74620426
-2.391 17.225 0.068999998 0.021345925 0.50395954 -0.55901551 0.75294703
-2.9059999 17.326 0.067000002 -0.018902667 0.5249123 -0.61631954 0.80977774
-2.95 17.253 0.068000004 -0.010862555 0.50743908 -0.63130915 0.81003934
-3.0079999 17.268 0.068000004 -0.0045317868 0.50345165 -0.65218967 0.82391477
-3.148 17.267 0.068000004 -0.0028422344 0.5152989 -0.65352011 0.83224374
-3.204 17.267 0.068000004 0.0098751802 0.52171624 -0.65130615 0.83455682
-3.2590001 17.259001 0.068000004 -0.0036772429 0.52941525 -0.65987504 0.84600776
-3.7 17.344999 0.066 -0.092554599 0.54708838 -0.52393866 0.76314074
-3.7550001 17.334 0.066 -0.091102146 0.54258001 -0.52792871 0.76249677
-3.8110001 17.332001 0.066 -0.10531915 0.5400939 -0.54064542 0.77142143
-3.8659999 17.322001 0.066 -0.10253508 0.54039252 -0.53648835 0.76834708
-3.9200001 17.305 0.066 -0.10379502 0.53214824 -0.53213483 0.75968587
-3.951 17.316999 0.066 -0.10379502 0.53214824 -0.53213483 0.75968587
-4.0050001 17.302 0.066 -0.10031174 0.53473663 -0.5332135 0.76178896
-4.0700002 17.334 0.066 -0.094177052 0.53479689 -0.54634827 0.77030736
-4.1160002 17.288 0.066 -0.084641904 0.53578609 -0.53819865 0.76412612
-1.559 17.082001 -0.035 0.20018312 0.41786432 -0.52792466 0.70241606
-1.6059999 17.003 -0.034000002 0.15877241 0.44079444 -0.44981256 0.64949191
-1.6619999 17.021999 -0.034000002 0.098663829 0.46990392 -0.53871661 0.72163689
-1.816 17.198999 -0.037 0.069317773 0.47650439 -0.54801649 0.72950906
-1.9859999 17.247 -0.037999999 0.010596424 0.49070054 -0.51599318 0.71214342
-2.043 17.266001 -0.037999999 0.014022209 0.49045846 -0.50905269 0.70702249
-2.098 17.268 -0.037999999 0.024046078 0.489553 -0.50181478 0.70146877
-2.128 17.285999 -0.039000001 0.015467029 0.4880392 -0.50778872 0.70446497
-2.1849999 17.305 -0.039000001 0.02333549 0.49131382 -0.51371616 0.71122295
-2.2409999 17.306 -0.039000001 0.033801146 0.4953976 -0.52115405 0.71983528
-2.2969999 17.311001 -0.039000001 0.046404779 0.49623737 -0.52773768 0.725887
-2.3380001 17.207001 -0.037999999 0.067534097 0.49262384 -0.52848452 0.7256273
-2.3900001 17.188999 -0.037999999 0.055230808 0.49943605 -0.53427333 0.7334404
-3.763 17.344999 -0.043000001 -0.1098022 0.5396378 -0.50898886 0.74989009
-3.8180001 17.339001 -0.043000001 -0.088440031 0.54489386 -0.50424951 0.74766207
-3.8699999 17.313 -0.043000001 -0.087476023 0.5450092 -0.50134438 0.7456764
-3.931 17.33 -0.044 -0.096439376 0.5392859 -0.49982578 0.7415899
-3.9809999 17.299999 -0.043000001 -0.11213817 0.53203809 -0.5035888 0.74110806
-4.013 17.313999 -0.044 -0.076647416 0.53954959 -0.47401091 0.72227067
-4.0619998 17.280001 -0.043000001 -0.10520202 0.53349727 -0.50656068 0.74316251
-4.1160002 17.264999 -0.043000001 -0.07833831 0.53796685 -0.51937187 0.75185925
-1.536 17.165001 -0.156 0.17205402 0.43298703 -0.48512432 0.67262614
-1.5829999 17.080999 -0.155 0.18679032 0.42108607 -0.56878746 0.73193121
-1.6339999 17.046 -0.154 0.14356503 0.44660762 -0.57649541 0.74324709
-1.947 17.184 -0.15800001 0.10460818 0.46530318 -0.58955985 0.75830781
-1.992 17.104 -0.156 0.08233121 0.47968116 -0.5973556 0.77052331
-2.0439999 17.08 -0.156 0.039818823 0.49141136 -0.59426636 0.77215487
-2.098 17.076 -0.156 0.027823213 0.49001461 -0.59679544 0.7726922
-2.1630001 17.158001 -0.15800001 0.031895097 0.48722163 -0.59661281 0.77094036
-2.194 17.187 -0.15800001 0.018546198 0.49093759 -0.58803076 0.76625311
-2.2539999 17.231001 -0.15899999 0.0097939521 0.49129927 -0.58710998 0.76561677
-2.3110001 17.246 -0.16 0.025789518 0.49552789 -0.58030963 0.7635262
-2.365 17.239 -0.16 0.014795173 0.50055087 -0.57494545 0.76245153
-3.704 17.365 -0.167 -0.19202177 0.51672876 -0.50927049 0.75049144
-3.734 17.372999 -0.168 -0.1574893 0.52844542 -0.52903187 0.76415455
-3.786 17.35 -0.167 -0.094924912 0.54064083 -0.57288718 0.79341221
-3.8010001 17.156 -0.163 -0.11392495 0.52661389 -0.62682772 0.82656765
-3.846 17.105 -0.163 -0.12777478 0.51453602 -0.63934875 0.83056635
-3.891 17.056 -0.162 -0.1258419 0.50735545 -0.65255666 0.83610761
-3.947 17.052999 -0.162 -0.1407696 0.50124413 -0.65809977 0.83914071
-4.0370002 17.195999 -0.16500001 -0.049584996 0.53745514 -0.58437252 0.79549229
-4.0869999 17.289 -0.167 -0.081990033 0.53492123 -0.55178952 0.77287436
-1.902 17.242001 -0.248 0.051567115 0.47386247 -0.60659915 0.7714709
-2.0020001 17.164 -0.24600001 0.048914324 0.48570853 -0.60866421 0.78024197
-2.033 17.195 -0.24699999 0.039942555 0.48882419 -0.59045762 0.76758361
-2.0929999 17.233999 -0.248 0.045672584 0.49151173 -0.56830049 0.75275177
-2.151 17.259001 -0.249 0.039764009 0.4879877 -0.55980092 0.74370039
-2.2049999 17.252001 -0.249 0.075897068 0.48250347 -0.57157832 0.75184554
-2.2639999 17.281 -0.25 0.029872134 0.4938316 -0.54985976 0.73966736
-2.316 17.254 -0.249 0.052156936 0.49868375 -0.54917008 0.74363542
-2.3599999 17.179001 -0.24699999 0.075487539 0.49283749 -0.54024857 0.73515689
-3.724 17.302 -0.257 -0.27367055 0.47606763 -0.54027158 0.77034366
-3.7739999 17.275 -0.25600001 -0.2268915 0.50035208 -0.55902976 0.78380239
-3.8310001 17.273001 -0.257 -0.013193921 0.55023175 -0.56512743 0.78885877
-3.882 17.247 -0.25600001 -0.088941209 0.54630482 -0.53987604 0.77319187
-3.9100001 17.243 -0.25600001 -0.079057582 0.53903377 -0.54683059 0.77190101
-3.967 17.243999 -0.257 0.01428339 0.54489094 -0.54102075 0.76799327
-4.02 17.228001 -0.257 0.01428339 0.54489094 -0.54102075 0.76799327
-4.0780001 17.231001 -0.257 0.025097631 0.54442084 -0.53636903 0.76466703
-4.1389999 17.245001 -0.25799999 0.21373229 0.4930675 -0.53760707 0.76014364
-1.785 17.191 -0.34900001 0.068684578 0.48174629 -0.55820066 0.74053025
-1.982 17.236 -0.35100001 0.074331164 0.47601479 -0.59607059 0.76643026
-2.039 17.26 -0.352 0.066427588 0.47300503 -0.59265792 0.76117659
-2.096 17.273001 -0.35299999 0.08130531 0.47317147 -0.60518718 0.77249813
-2.125 17.290001 -0.35299999 0.063624807 0.48395044 -0.59353381 0.76846504
-2.1819999 17.301001 -0.354 0.060612012 0.48578805 -0.57154673 0.75254864
-2.2390001 17.313999 -0.354 0.033677869 0.49735314 -0.53721786 0.73286927
-2.2950001 17.318001 -0.35499999 0.048740018 0.50060296 -0.53601032 0.7350415
-2.336 17.212 -0.352 0.1041726 0.47683087 -0.60538578 0.777632
-2.391 17.212 -0.352 0.072353348 0.49204692 -0.57567847 0.76075679
-3.8150001 17.341 -0.36399999 0.42309913 0.31047097 -0.58989108 0.78954202
-3.8729999 17.346001 -0.36500001 0.09014722 0.54343426 -0.5627237 0.78746766
-3.925 17.322001 -0.36399999 0.046399929 0.55347347 -0.54143018 0.77564973
-3.9849999 17.337 -0.36500001 0.043024931 0.54697585 -0.54215586 0.77134085
-4.0079999 17.309999 -0.36399999 0.038906194 0.54039651 -0.54277641 0.76690829
-4.112 17.509001 -0.37099999 -0.032250129 0.5249052 -0.40273112 0.66238803
-1.599 16.877001 -0.44999999 0.1205115 0.41473696 -0.70088625 0.82326871
-1.964 17.016001 -0.456 0.063482434 0.46027461 -0.6857003 0.82829201
-2.0209999 17.039 -0.45699999 0.12655087 0.44876936 -0.67348063 0.81913686
-2.0769999 17.056999 -0.458 0.12934285 0.46072283 -0.63992727 0.79906327
-2.1329999 17.068001 -0.45899999 0.10776874 0.4729329 -0.62629759 0.79216683
-2.1889999 17.080999 -0.46000001 0.13260812 0.46844214 -0.6078229 0.77876288
-2.22 17.105 -0.461 0.165361 0.44902736 -0.61994922 0.78313911
-2.2750001 17.106001 -0.461 0.13413158 0.46433812 -0.61970401 0.78589708
-2.342 17.198 -0.465 0.10160733 0.45912883 -0.66847825 0.81730443
-3.8280001 17.103001 -0.472 0.46411079 -0.13104695 -0.56670958 0.74413162
-3.8800001 17.086 -0.47099999 0.40702951 -0.23033081 -0.57219231 0.73900563
-3.9430001 17.112 -0.47299999 0.10753446 0.53460336 -0.48408419 0.72917897
-3.987 17.056999 -0.47099999 0.30691475 0.43689862 -0.53286254 0.75433385
-4.02 17.077999 -0.472 0.30345148 0.44096586 -0.51112914 0.74012613
-4.1389999 17.099001 -0.47400001 0.40139163 0.33917418 -0.48546231 0.71542156
-4.2449999 17.299 -0.48300001 0.49476746 0.03422948 -0.45044139 0.66997308
-1.9450001 17.246 -0.56800002 0.06528917 0.4265621 -0.73305839 0.85064244
-2.1730001 17.309 -0.57200003 0.041332014 0.46657112 -0.67115694 0.81844276
-2.23 17.327999 -0.57300001 -0.042358447 0.4771156 -0.68290007 0.83413786
-2.286 17.329 -0.574 -0.098575056 0.47411826 -0.67945868 0.83436757
-2.303 17.246 -0.56999999 -0.040172767 0.47980109 -0.68304878 0.8356905
-2.352 17.207001 -0.56900001 0.17999446 0.40991402 -0.71358085 0.8423925
-3.8889999 17.336 -0.58700001 0.32571408 0.41779155 -0.62670577 0.82060927
-3.9449999 17.330999 -0.58700001 0.23342203 0.49011472 -0.59802622 0.80767179
-4.0170002 17.395 -0.58999997 0.43437809 0.31241757 -0.49304435 0.72758627
-4.0510001 17.296 -0.58700001 0.42478722 0.30381051 -0.49394226 0.71883518
-4.1630001 17.282 -0.58700001 0.44752994 0.24764092 -0.42227232 0.6632669
-4.1950002 17.295 -0.588 0.47083035 0.13778718 -0.36823812 0.61340511
-1.604 16.851999 -0.64700001 -0.18377098 0.48056057 -0.40617999 0.65550929
-1.687 17.149 -0.662 0.22408488 0.38974416 -0.3949866 0.5984388
-1.717 16.909 -0.64999998 -0.046092741 0.50675786 -0.46112764 0.6867072
-1.768 16.885 -0.64899999 -0.0142341 0.50604451 -0.48057497 0.6980229
-1.824 16.91 -0.65100002 0.12825149 0.47451112 -0.45327622 0.66863185
-1.88 16.927999 -0.65200001 0.12165292 0.4851827 -0.47538564 0.69006753
-1.9349999 16.938999 -0.653 0.097793736 0.49387434 -0.48284271 0.69757622
-2.1370001 17.040001 -0.65899998 0.130786 0.39719963 -0.76650214 0.8731541
-2.1930001 17.052999 -0.66000003 0.14619958 0.41940695 -0.71839291 0.84460932
-2.2409999 17.002001 -0.65799999 0.21279576 0.44636598 -0.46438295 0.67836285
-2.303 17.055 -0.66100001 0.23792911 0.43058124 -0.44641197 0.66429973
-2.346 17.172001 -0.667 0.3808893 0.27065438 -0.428112 0.63372737
-3.8859999 17.073999 -0.676 0.33978716 0.30643547 -0.24443328 0.51875395
-3.9590001 17.148001 -0.68000001 0.45201254 0.24635753 -0.54397261 0.7489416
-3.99 17.035999 -0.67500001 0.33878776 0.31157964 -0.24392807 0.52092218
-1.895 16.808001 -0.75300002 0.091260538 0.4937022 -0.52331537 0.72520983
-1.9960001 17.225 -0.778 0.13394471 0.45277172 -0.36373645 0.59602654
-3.8770001 17.288 -0.79900002 0.44631499 0.28396267 -0.43263066 0.68337482
-3.9319999 17.281 -0.79900002 0.43205658 0.28239104 -0.3679134 0.63385952
-3.961 17.283001 -0.80000001 0.43205658 0.28239104 -0.3679134 0.63385952
-4.0139999 17.264999 -0.79900002 0.33683312 0.27909833 -0.19607386 0.47937188
-1.939 16.969 -0.85399997 0.16445157 0.33635771 -0.18001345 0.41543433
-1.995 16.989 -0.85600001 0.12918542 0.36993226 -0.19314471 0.43685654
-1.569 17.032 -0.97500002 0.35432705 0.25273883 -0.51529014 0.67449868
-1.6160001 16.958 -0.97000003 -0.21213371 0.40800229 -0.23284924 0.51544672
-1.681 17.073999 -0.97799999 -0.18856832 0.45743644 -0.31400919 0.5860101
-1.7410001 17.138 -0.98299998 -0.10631005 0.386298 -0.81531227 0.90843934
-1.7970001 17.152 -0.98400003 -0.10028365 0.39126924 -0.81616783 0.91064721
-1.85 17.138 -0.98400003 0.14910431 0.38425943 -0.23717892 0.47554311
-1.851 16.889999 -0.96700001 -0.009556517 0.43404573 -0.22243768 0.48781711
-1.9069999 16.915001 -0.96899998 0.17034227 0.34161839 -0.18965614 0.42625001
