# .PCD v0.7 - Point Cloud Data file format
VERSION 0.7
FIELDS x y z normal_x normal_y normal_z curvature
SIZE 4 4 4 4 4 4 4
TYPE F F F F F F F
COUNT 1 1 1 1 1 1 1
WIDTH 67
HEIGHT 1
VIEWPOINT 0 0 0 1 0 0 0
POINTS 67
DATA ascii
-13.549 -2.2809999 -0.48699999 0.42999956 0.15340512 -0.65629655 0.79947352
-13.544 -2.3239999 -0.48699999 0.45197621 0.10246728 -0.63976985 0.78999209
-13.217 -2.8280001 -0.47499999 0.47345495 0.034371957 -0.57017511 0.74191689
-13.214 -2.8699999 -0.47600001 0.47383144 0.020325787 -0.56935745 0.74101102
-13.211 -2.9130001 -0.47600001 0.47286099 0.020591594 -0.56934118 0.74038565
-13.186 -2.951 -0.47499999 0.44610432 -0.017649509 -0.6746403 0.80898708
-14.334 -2.1240001 -0.616 0.27731887 -0.33226404 -0.18135628 0.46924967
-14.431 -2.161 -0.62199998 0.38115245 -0.33311829 -0.3161236 0.59680742
-13.561 -2.207 -0.574 0.45642322 0.096495137 -0.63400239 0.78714198
-13.568 -2.2520001 -0.57499999 0.45621905 0.090408683 -0.63780445 0.7893694
-13.563 -2.2950001 -0.57499999 0.45437428 0.093915589 -0.63797975 0.78885633
-13.549 -2.3139999 -0.574 0.45434678 0.095601395 -0.63807118 0.78911686
-13.528 -2.355 -0.574 0.45434678 0.095601395 -0.63807118 0.78911686
-13.511 -2.395 -0.57300001 0.45356277 0.095904678 -0.63807046 0.78870201
-13.237 -2.8 -0.56199998 0.47345495 0.034371957 -0.57017511 0.74191689
-13.231 -2.8210001 -0.56199998 0.47345495 0.034371957 -0.57017511 0.74191689
-13.239 -2.8659999 -0.56300002 0.47383144 0.020325787 -0.56935745 0.74101102
-13.226 -2.9070001 -0.56300002 0.47286099 0.020591594 -0.56934118 0.74038565
-13.219 -2.9489999 -0.56300002 0.47004879 0.010202661 -0.56836182 0.73762125
-13.178 -2.983 -0.56099999 0.46907306 0.0018355921 -0.56746221 0.73623788
-13.167 -3.0239999 -0.56099999 0.46414039 0.0051624961 -0.56757098 0.73320514
-14.329 -2.0910001 -0.69300002 0.27693045 -0.33567086 -0.18104392 0.47131976
-14.328 -2.1370001 -0.69400001 0.27731887 -0.33226404 -0.18135628 0.46924967
-14.448 -2.201 -0.70099998 0.37745312 -0.33259413 -0.31625709 0.5942291
-13.606 -2.181 -0.64999998 0.3642692 0.21956165 -0.717291 0.83390993
-13.607 -2.2249999 -0.64999998 0.36976501 0.19840583 -0.73192537 0.84368581
-13.606 -2.2690001 -0.65100002 0.36876613 0.19963321 -0.73198879 0.84359318
-13.633 -2.3169999 -0.653 0.36954924 0.20233198 -0.73216486 0.84473085
-13.59 -2.3540001 -0.65100002 0.45434678 0.095601395 -0.63807118 0.78911686
-13.571 -2.395 -0.64999998 0.45434678 0.095601395 -0.63807118 0.78911686
-13.577 -2.418 -0.64999998 0.45434678 0.095601395 -0.63807118 0.78911686
-13.29 -2.822 -0.63800001 0.4734734 0.03445274 -0.56998229 0.74178421
-13.285 -2.8640001 -0.63800001 0.4734734 0.03445274 -0.56998229 0.74178421
-13.302 -2.911 -0.63999999 0.47403875 0.020659827 -0.56918991 0.74102414
-13.281 -2.9289999 -0.639 0.4728013 0.017595969 -0.56891197 0.73994023
-13.268 -2.97 -0.63800001 0.47006723 0.010283444 -0.568169 0.73748553
-14.295 -2.072 -0.792 0.26814124 -0.39403191 -0.24503165 0.53591174
-14.296 -2.118 -0.792 0.16777654 -0.26536009 -0.077649474 0.32341054
-14.369 -2.175 -0.79799998 0.27721569 -0.32930329 -0.18162328 0.4672004
-14.488 -2.24 -0.80699998 0.38452426 -0.32632947 -0.31662333 0.59548312
-14.481 -2.2850001 -0.80699998 0.38132074 -0.3284488 -0.31654185 0.59454423
-14.503 -2.335 -0.80900002 0.38132074 -0.3284488 -0.31654185 0.59454423
-14.523 -2.362 -0.81 0.38132074 -0.3284488 -0.31654185 0.59454423
-14.502 -2.405 -0.80900002 0.37923893 -0.32589 -0.31680602 0.59193963
-14.465 -2.4460001 -0.80699998 0.37816522 -0.32418507 -0.31891415 0.59144831
-13.302 -2.727 -0.73199999 0.39417082 0.24575692 -0.58856744 0.74978578
-13.299 -2.77 -0.73299998 0.39417082 0.24575692 -0.58856744 0.74978578
-13.3 -2.8139999 -0.73299998 0.40467224 0.22775623 -0.59165764 0.75212455
-13.285 -2.8540001 -0.73299998 0.4734734 0.03445274 -0.56998229 0.74178421
-13.282 -2.8970001 -0.73299998 0.47378084 0.029286068 -0.56973374 0.74156755
-13.273 -2.9389999 -0.73299998 0.4728013 0.017595969 -0.56891197 0.73994023
-13.258 -2.9790001 -0.73299998 0.47167248 0.018149473 -0.56891131 0.7392323
-13.209 -2.99 -0.73000002 0.46752399 0.0079120509 -0.56782365 0.73557121
-13.182 -3.0280001 -0.72799999 0.46800387 0.0027368702 -0.56730902 0.7354418
-14.379 -2.0739999 -0.86900002 0.27731887 -0.33226404 -0.18135628 0.46924967
-14.26 -2.102 -0.861 0.17015503 -0.34124699 -0.12850276 0.40238687
-14.02 -2.112 -0.84299999 0.076814398 0.45549858 -0.4632476 0.65420008
-14.219 -2.187 -0.85900003 0.16441691 -0.26462859 -0.077589393 0.3210628
-13.91 -2.184 -0.83600003 0.13522714 0.41431868 -0.67275536 0.80158979
-13.655 -2.188 -0.81800002 0.32381192 0.24040067 -0.75683874 0.85758471
-13.658 -2.2320001 -0.81800002 0.32316539 0.24233869 -0.75696218 0.85799509
-13.623 -2.336 -0.81699997 0.36971414 0.20148219 -0.73211741 0.84455878
-13.607 -2.378 -0.81599998 0.36755767 0.20320365 -0.73218036 0.84408438
-13.557 -2.5009999 -0.81400001 0.4025847 0.20408815 -0.66344339 0.80242354
-13.555 -2.5220001 -0.81400001 0.40112215 0.20437887 -0.66922981 0.8065595
-13.572 -2.5699999 -0.81599998 0.38723376 0.22775356 -0.66953397 0.80628616
-13.159 -2.727 -0.78899997 0.4720912 0.03398829 -0.56990886 0.74082482
