# .PCD v0.7 - Point Cloud Data file format
VERSION 0.7
FIELDS x y z normal_x normal_y normal_z curvature
SIZE 4 4 4 4 4 4 4
TYPE F F F F F F F
COUNT 1 1 1 1 1 1 1
WIDTH 53
HEIGHT 1
VIEWPOINT 0 0 0 1 0 0 0
POINTS 53
DATA ascii
9.8430004 1.698 -4.0929999 0.25952181 0.038442276 -0.0372141 0.26497975
9.7250004 1.709 -4.0450001 0.2556698 0.031869467 -0.036133438 0.26016983
9.6739998 1.732 -4.0250001 0.25068378 0.033244297 -0.036627024 0.25551727
9.5880003 1.748 -3.9909999 0.24704428 0.033719398 -0.03682822 0.25204006
9.533 1.753 -3.9690001 0.24569537 0.034986477 -0.037046999 0.25092378
9.4460001 1.799 -3.9360001 0.24696997 0.039407343 -0.03719762 0.25284535
9.4169998 1.824 -3.9260001 0.24787445 0.040195961 -0.037555486 0.25390527
9.3730001 1.846 -3.9100001 0.27537769 0.10788359 -0.065491825 0.30292067
9.3599997 1.874 -3.9070001 0.27537769 0.10788359 -0.065491825 0.30292067
9.3649998 1.906 -3.911 0.28023705 0.10577817 -0.069743603 0.30754834
9.3219995 1.9119999 -3.8940001 0.30327991 0.11192095 -0.082386404 0.33360532
9.2399998 1.926 -3.8610001 0.28882912 0.11371221 -0.083600551 0.32146817
9.3389997 1.977 -3.9070001 0.30143341 0.10199984 -0.081030071 0.32837775
9.3579998 2.0120001 -3.9170001 0.31530285 0.11237082 -0.091469646 0.34700114
9.3240004 2.0350001 -3.9059999 0.31318921 0.11099058 -0.091375023 0.34460962
9.3120003 2.063 -3.9030001 0.38789546 0.11705904 -0.14421391 0.43007368
9.3129997 2.0940001 -3.9070001 0.38960156 0.12286251 -0.1473183 0.43426633
9.3100004 2.109 -3.9070001 0.38960156 0.12286251 -0.1473183 0.43426633
9.3120003 2.1400001 -3.9100001 0.37999505 0.12087423 -0.1376467 0.42184529
9.3120003 2.171 -3.914 0.45640332 0.10903402 -0.2293801 0.5223099
9.3199997 2.204 -3.9200001 0.45630625 0.1121934 -0.22488144 0.52093607
9.3219995 2.2349999 -3.924 0.523404 0.077546902 -0.37083209 0.64612824
9.283 2.257 -3.9100001 0.52038109 0.07761246 -0.37109381 0.64384067
9.2880001 2.289 -3.915 0.53585678 0.056137525 -0.43810213 0.69442594
9.283 2.303 -3.914 0.5393675 0.043701015 -0.46411389 0.71290165
9.2969999 2.3369999 -3.924 0.53687263 0.045845605 -0.55718172 0.77510351
9.2889996 2.3670001 -3.924 0.53687263 0.045845605 -0.55718172 0.77510351
9.2959995 2.3989999 -3.9300001 0.54322255 0.049674377 -0.5534513 0.77708858
9.2919998 2.4289999 -3.931 0.54273623 0.05628952 -0.5532648 0.77706695
9.276 2.1600001 -3.9890001 0.4498004 0.10552908 -0.22559786 0.51415092
9.2889996 2.194 -3.9979999 0.4498004 0.10552908 -0.22559786 0.51415092
9.2799997 2.207 -3.9960001 0.51932061 0.075349964 -0.36795902 0.64090979
9.2659998 2.2349999 -3.993 0.51715112 0.075212657 -0.37138879 0.64111763
9.2930002 2.2720001 -4.0079999 0.53653586 0.052447461 -0.44461736 0.698789
9.2790003 2.3 -4.0040002 0.53667939 0.043512866 -0.55723178 0.77487123
9.2799997 2.3310001 -4.0079999 0.53667939 0.043512866 -0.55723178 0.77487123
9.2980003 2.3659999 -4.0190001 0.54489142 0.044675723 -0.55340624 0.77792102
9.2889996 2.395 -4.0190001 0.55695873 0.05186639 -0.55187684 0.78578699
9.29 2.411 -4.0209999 0.55695873 0.05186639 -0.55187684 0.78578699
9.2589998 2.434 -4.0110002 0.54228932 0.044779658 -0.54617095 0.77096409
9.2449999 2.461 -4.0079999 0.54613912 0.048893478 -0.54569542 0.77359033
9.3109999 2.5109999 -4.0409999 0.55265671 0.046119474 -0.53983092 0.77393401
9.2460003 2.5550001 -4.0190001 0.54256642 0.054565258 -0.54058295 0.7678448
9.257 2.5899999 -4.027 0.54888642 0.055516504 -0.51813191 0.7568481
9.2629995 2.6229999 -4.0339999 0.55243087 0.065932773 -0.49107268 0.74207777
9.2659998 2.6400001 -4.0370002 0.55243087 0.065932773 -0.49107268 0.74207777
9.2659998 2.671 -4.0409999 0.55918241 0.070714802 -0.51081449 0.76066875
9.2690001 2.7030001 -4.046 0.55787694 0.10068288 -0.48097146 0.74343616
9.2340002 2.7249999 -4.0339999 0.55701858 0.10495213 -0.48067796 0.74319303
9.2550001 2.763 -4.0469999 0.55071121 0.11547519 -0.42356345 0.70428926
9.2440004 2.7909999 -4.046 0.55071121 0.11547519 -0.42356345 0.70428926
9.2379999 2.8050001 -4.046 0.54512137 0.12140785 -0.42354953 0.70092177
9.2469997 2.8399999 -4.0539999 0.23651691 0.11717974 -0.030402511 0.26569843
