# .PCD v0.7 - Point Cloud Data file format
VERSION 0.7
FIELDS x y z normal_x normal_y normal_z curvature
SIZE 4 4 4 4 4 4 4
TYPE F F F F F F F
COUNT 1 1 1 1 1 1 1
WIDTH 657
HEIGHT 1
VIEWPOINT 0 0 0 1 0 0 0
POINTS 657
DATA ascii
-0.56099999 10.096 -1.165 -0.14161582 0.5797931 -0.54841328 0.81053823
-0.59399998 10.1 -1.165 -0.13185756 0.57896483 -0.54196608 0.80393654
-0.625 10.096 -1.165 -0.12336702 0.57972479 -0.53644055 0.79941773
-0.64200002 10.103 -1.166 -0.12073153 0.57948357 -0.53837025 0.80013734
-0.67299998 10.095 -1.165 -0.11787894 0.56563145 -0.53210044 0.78547132
-0.70499998 10.093 -1.165 -0.10935549 0.5628624 -0.5288347 0.78002489
-0.73699999 10.095 -1.166 -0.10721888 0.56249785 -0.53170532 0.78141552
-0.76800001 10.09 -1.166 -0.10918494 0.55992526 -0.5387193 0.78463757
-0.80000001 10.096 -1.1670001 -0.11117156 0.55947703 -0.53770977 0.78390402
-0.833 10.101 -1.168 -0.10776942 0.55932724 -0.54128069 0.78577733
-0.85100001 10.123 -1.171 -0.089597553 0.55643022 -0.54668593 0.78518015
-0.88099998 10.101 -1.168 -0.13892224 0.55254436 -0.57661742 0.81061232
-0.91399997 10.112 -1.17 -0.13389225 0.55224109 -0.57680118 0.8096894
-0.94599998 10.109 -1.17 -0.17353562 0.54902935 -0.58111507 0.81807244
-0.977 10.098 -1.169 -0.17777608 0.54848218 -0.58161962 0.81897402
-1.0089999 10.105 -1.171 -0.18914732 0.54413581 -0.60024232 0.83195633
-1.041 10.098 -1.17 -0.21365318 0.52225387 -0.65555191 0.86495382
-1.058 10.108 -1.1720001 -0.20118533 0.52860314 -0.65279639 0.86373603
-1.089 10.097 -1.171 -0.20512769 0.51396203 -0.68645293 0.88173234
-1.118 10.075 -1.168 0.052459009 -0.2520642 -0.13421497 0.29034799
-1.12 9.8140001 -1.133 0.3125363 -0.16799611 -0.35713178 0.50343293
-1.145 9.7589998 -1.126 0.35365492 -0.088585787 -0.35165802 0.50653982
-1.173 9.7340002 -1.123 0.36560893 -0.044100568 -0.33402345 0.49717844
-1.197 9.6850004 -1.117 0.21497276 0.23767284 -0.12954897 0.34566545
-1.228 9.6789999 -1.117 0.14105448 0.39351782 -0.1861257 0.45759743
-1.247 9.7089996 -1.1210001 0.24061236 0.1613844 -0.1285497 0.31696096
-1.279 9.7200003 -1.123 0.23373625 0.2245959 -0.14089289 0.35344979
-1.3049999 9.6829996 -1.119 0.1379362 0.44008309 -0.23295033 0.51668692
-5.5650001 9.1630001 -1.247 0.037195474 0.61807036 -0.45785311 0.77008045
-5.6170001 9.184 -1.253 0.070240416 0.61448222 -0.53497475 0.81775308
-5.6989999 9.2519999 -1.266 0.17941868 0.45224458 -0.81841218 0.95211065
-5.711 9.2060003 -1.262 0.17817694 0.42231685 -0.8523798 0.9678067
-5.6960001 9.1190004 -1.251 0.088236086 0.57642651 -0.6906985 0.90394557
-5.73 9.1090002 -1.252 0.090197697 0.56196201 -0.72012287 0.91788554
-6.1329999 9.1619997 -1.288 0.097329974 -0.20618583 -0.13041943 0.26266891
-6.1300001 9.0970001 -1.28 0.10238909 -0.23635532 -0.1653001 0.30605799
-6.1459999 9.0600004 -1.277 -0.057502575 0.57630306 -0.73449546 0.93536913
-6.1739998 9.0389996 -1.277 -0.059559517 0.57624179 -0.73394942 0.93503135
-6.2249999 9.052 -1.2819999 -0.04911346 0.57904404 -0.73251909 0.93503392
-6.2540002 9.0340004 -1.283 -0.039665923 0.59382403 -0.70939124 0.92597854
-6.2820001 9.0439997 -1.286 -0.038529977 0.59824449 -0.69796234 0.92007196
-6.3210001 9.0380001 -1.288 -0.032534182 0.5989325 -0.69634342 0.91906083
-6.355 9.0270004 -1.29 0.0090226177 0.59125614 -0.71518439 0.92798382
-6.3909998 9.0179996 -1.2920001 0.029218657 0.5876829 -0.72283655 0.93205023
-6.4530001 9.0439997 -1.299 0.045390405 0.59878218 -0.70392334 0.92526132
-6.4790001 9.0209999 -1.299 0.081662148 0.58737558 -0.71740842 0.93078119
-7.2740002 10.056 -1.475 0.38421163 0.24451914 -0.17304945 0.48719022
-7.0609999 9.7299995 -1.4220001 0.41842765 0.24716499 -0.18826088 0.52116638
-7.0190001 9.6090002 -1.406 0.249248 0.20529635 -0.034012377 0.32469678
-6.743 9.1129999 -1.33 0.11643855 0.50505072 -0.82166147 0.97147399
-6.7870002 9.1120005 -1.3329999 0.083971351 0.50392884 -0.82778019 0.97273612
-6.829 9.1079998 -1.336 0.069159225 0.50482655 -0.82842648 0.97258586
-6.8699999 9.1040001 -1.339 0.055460565 0.51102984 -0.82289505 0.9702493
-6.9299998 9.0939999 -1.3430001 0.049175762 0.51240778 -0.82080388 0.9688648
-7.013 9.0830002 -1.349 0.046333872 0.51030397 -0.82538581 0.97150332
-7.053 9.0769997 -1.351 0.045802888 0.51513445 -0.82043964 0.96983641
-7.0970001 9.073 -1.354 0.0357261 0.51954681 -0.81732857 0.9691394
-7.1370001 9.066 -1.357 0.041929938 0.52832454 -0.81791371 0.97461158
-7.1539998 9.0579996 -1.358 0.040922977 0.53144443 -0.8147192 0.97358888
-7.197 9.0539999 -1.3609999 0.044481892 0.54495662 -0.79516125 0.96500659
-7.2420001 9.052 -1.364 0.064607635 0.5231902 -0.81762964 0.97284138
-7.415 9.1490002 -1.3890001 0.033203814 0.5306896 -0.82692766 0.98312932
-7.427 9.1059999 -1.386 0.02432631 0.55439383 -0.80371463 0.97667879
-7.4369998 9.059 -1.382 0.040192354 0.54434997 -0.81122386 0.97776097
-7.4359999 9.0290003 -1.378 0.044804908 0.55919683 -0.79479015 0.97283089
-7.4629998 9.0039997 -1.378 0.050981253 0.54891008 -0.80543751 0.97602814
-7.5019999 8.993 -1.38 0.041237436 0.54636258 -0.8094874 0.9774878
-7.5479999 8.9910002 -1.3839999 0.053607896 0.55124587 -0.80262119 0.97516489
-7.5900002 8.9829998 -1.387 0.022001028 0.55737489 -0.79678881 0.97263724
-7.6479998 8.9940004 -1.393 0.0047935611 0.56120026 -0.79290992 0.97142929
-7.6880002 8.9840002 -1.396 0.011012332 0.5658102 -0.78745687 0.96971691
-7.7389998 8.9860001 -1.4 0.0096007772 0.57381237 -0.77775699 0.96657062
-7.7620001 8.9849997 -1.402 0.0035559144 0.57426375 -0.77268392 0.96272111
-7.8189998 8.993 -1.408 -0.0068541849 0.58476686 -0.77129233 0.96793139
-7.868 8.9919996 -1.4119999 0.012273425 0.5930208 -0.75656557 0.96136141
-7.9159999 8.9899998 -1.416 -4.7195703e-05 0.58022177 -0.76722145 0.96191788
-7.967 8.9899998 -1.421 -0.011438366 0.57724869 -0.76934916 0.96189654
-8.0080004 8.9799995 -1.424 -0.039486695 0.57754892 -0.76953471 0.9629671
-8.0439997 8.9910002 -1.428 -0.05523492 0.56878036 -0.77983993 0.96680522
-8.1009998 8.9980001 -1.434 -0.068334892 0.57045478 -0.77650523 0.96594447
-8.1440001 8.9890003 -1.437 -0.082082778 0.57201982 -0.77253139 0.96475333
-8.191 8.9829998 -1.4400001 -0.10789198 0.58665538 -0.74679387 0.9557752
-8.2539997 8.9949999 -1.447 -0.10943145 0.60995436 -0.72324181 0.95241708
-8.3000002 8.9879999 -1.451 -0.12835442 0.62239361 -0.69556427 0.9421562
-8.3549995 8.9910002 -1.456 -0.10176697 0.64356387 -0.66247296 0.92919397
-8.3909998 9.0010004 -1.46 -0.11196271 0.64700496 -0.6465655 0.9215194
-8.4390001 8.9969997 -1.464 -0.11353504 0.65452737 -0.62598664 0.91277355
-8.4890003 8.993 -1.469 -0.077876568 0.66498244 -0.62532771 0.91613382
-8.5500002 9.0010004 -1.475 -0.062518381 0.67375314 -0.59202743 0.89908195
-8.5939999 8.9899998 -1.478 -0.051955599 0.67851895 -0.57181764 0.88885474
-8.6540003 8.9949999 -1.484 -0.021381078 0.68164247 -0.56170058 0.88351637
-8.7119999 8.9989996 -1.49 -0.025427673 0.68269485 -0.55844104 0.8823691
-8.7419996 9.0010004 -1.493 -0.03332293 0.68306231 -0.56686842 0.88827044
-8.8030005 9.0080004 -1.499 -0.054939561 0.6870774 -0.5490005 0.8811897
-8.8800001 9.0290003 -1.5089999 -0.12137547 0.68263733 -0.58924401 0.90990895
-8.8789997 8.9720001 -1.503 -0.10613082 0.69773895 -0.52805746 0.88144654
-8.9790001 8.9589996 -1.512 -0.13143256 0.70026565 -0.47716308 0.85751444
-9.0279999 8.9519997 -1.516 -0.13438617 0.70296055 -0.46045259 0.85101694
-9.0860004 8.9530001 -1.521 -0.11126353 0.70318425 -0.50762427 0.87437409
-9.1160002 8.9540005 -1.524 -0.094656572 0.70641512 -0.48603782 0.86267895
-9.283 9.0600004 -1.55 0.11561428 0.6711821 -0.47965306 0.83301806
0.154 9.5939999 -1.16 0.041385725 0.57100111 -0.47190967 0.74192572
-0.041999999 9.474 -1.143 -0.054122403 0.59820724 -0.47725427 0.76717192
-0.071999997 9.4960003 -1.146 -0.077937409 0.60133803 -0.47551337 0.77058071
-0.122 10.096 -1.2309999 -0.13679451 0.60454011 -0.47258705 0.77943569
-0.154 10.099 -1.232 -0.14540645 0.59672487 -0.47614855 0.77713645
-0.186 10.091 -1.23 -0.14913064 0.59092349 -0.47679767 0.77380002
-0.21699999 10.094 -1.2309999 -0.16970125 0.59062743 -0.48632026 0.78367513
-0.249 10.095 -1.2309999 -0.17451704 0.58749849 -0.49841121 0.78995216
-0.28099999 10.102 -1.232 -0.17017323 0.58765578 -0.50331861 0.79222965
-0.29699999 10.108 -1.233 -0.17101948 0.58754575 -0.50390941 0.79270571
-0.329 10.107 -1.233 -0.17122833 0.58695149 -0.51261371 0.79787469
-0.361 10.102 -1.233 -0.17622116 0.58408087 -0.51942456 0.8012529
-0.39199999 10.099 -1.232 -0.1733786 0.58374673 -0.52690876 0.80526596
-0.42399999 10.105 -1.234 -0.17579055 0.58219779 -0.5383032 0.8121742
-0.456 10.106 -1.234 -0.16268265 0.58152997 -0.54574329 0.81392783
-0.48699999 10.093 -1.232 -0.15516348 0.58169264 -0.54944295 0.81506419
-0.50300002 10.09 -1.232 -0.15122452 0.58568597 -0.54976666 0.81739849
-0.53299999 10.049 -1.226 -0.1523276 0.5763464 -0.54606497 0.80843413
-0.56400001 10.037 -1.225 -0.14564952 0.57748926 -0.53916967 0.80337512
-0.59600002 10.039 -1.225 -0.14267994 0.57756853 -0.53900415 0.8027879
-0.62599999 10.023 -1.223 -0.14144397 0.57457519 -0.5338589 0.79696196
-0.65799999 10.029 -1.225 -0.13120724 0.57130319 -0.53003025 0.7902751
-0.69 10.033 -1.225 -0.11578328 0.56832629 -0.52733958 0.78389257
-0.70499998 10.026 -1.225 -0.11578328 0.56832629 -0.52733958 0.78389257
-0.73699999 10.024 -1.225 -0.1234948 0.56633365 -0.53413522 0.78821653
-0.76999998 10.045 -1.228 -0.12136504 0.56149071 -0.55882722 0.80142945
-0.80400002 10.072 -1.232 -0.12071222 0.55758041 -0.55964446 0.79916787
-0.83899999 10.113 -1.238 -0.11012664 0.55473709 -0.56457096 0.79912543
-0.87099999 10.108 -1.238 -0.13008551 0.5518831 -0.5807631 0.81165445
-0.903 10.112 -1.239 -0.12667617 0.55142254 -0.58309299 0.81247222
-0.935 10.115 -1.24 -0.11655846 0.55128086 -0.58161962 0.8098011
-0.95200002 10.119 -1.2410001 -0.12538247 0.55235875 -0.57662529 0.80828071
-0.98500001 10.126 -1.242 -0.16041827 0.54682028 -0.59611917 0.8246845
-1.016 10.121 -1.242 -0.16738455 0.54751009 -0.59797704 0.82786554
-1.0470001 10.11 -1.2410001 -0.26350003 0.51183492 -0.64712811 0.86613047
-1.081 10.126 -1.243 -0.16964154 0.54943347 -0.60103363 0.83180332
-1.075 9.7679996 -1.193 0.26200569 -0.11307551 -0.20775393 0.35297981
-1.089 9.7530003 -1.191 0.25273073 -0.035815731 -0.15557101 0.29892796
-1.118 9.743 -1.1900001 0.32960659 -0.084700882 -0.2983391 0.45257151
-1.149 9.7399998 -1.1900001 0.31123835 0.00062458962 -0.20510766 0.37274504
-1.1799999 9.7379999 -1.1900001 0.27372906 0.055434093 -0.15408295 0.31897035
-1.207 9.7030001 -1.186 0.24099451 0.15906493 -0.12769538 0.31573108
-5.7810001 9.1219997 -1.331 0.10427305 0.46558148 -0.84509754 0.97047865
-6.1350002 9.132 -1.359 -0.05969971 0.54171681 -0.77922869 0.95090407
-6.1149998 9.0710001 -1.35 -0.059588008 0.5753181 -0.73542452 0.93562323
-6.1360002 9.0410004 -1.348 -0.057687014 0.57619566 -0.73461121 0.93540519
-6.1719999 9.033 -1.35 -0.056148656 0.58070731 -0.7276938 0.93269068
-6.2069998 9.0229998 -1.352 -0.041875027 0.57229114 -0.7218042 0.92210191
-6.2470002 9.0220003 -1.355 -0.031732246 0.57840556 -0.71087629 0.91700876
-6.29 9.0229998 -1.359 -0.037404142 0.59898096 -0.69489723 0.91818267
-6.3299999 9.0200005 -1.362 -0.010683708 0.60379541 -0.68343955 0.91201568
-6.3509998 9.0190001 -1.363 0.022635812 0.59141546 -0.71295625 0.92660195
-6.3940001 9.0200005 -1.367 0.02484788 0.60694027 -0.68800855 0.91779613
-6.4260001 9.0050001 -1.368 0.032806013 0.61889201 -0.66059124 0.90580589
-6.4239998 8.9429998 -1.3609999 0.058320172 0.60820735 -0.64915502 0.89147049
-6.4860001 8.9689999 -1.369 0.076311596 0.59608454 -0.67328292 0.90246886
-6.5240002 8.9630003 -1.3710001 0.095769495 0.5953151 -0.66759145 0.89958334
-6.5669999 8.9619999 -1.375 0.10735652 0.5869481 -0.68366605 0.90743196
-6.5960002 8.9720001 -1.378 0.11662944 0.57881427 -0.6980328 0.91426373
-6.6389999 8.9720001 -1.382 0.11645222 0.59436256 -0.68616974 0.91523594
-6.6820002 8.9709997 -1.385 0.10179122 0.6000458 -0.68667454 0.91757196
-6.723 8.967 -1.388 0.09289819 0.59900594 -0.69134766 0.91945624
-6.7709999 8.9729996 -1.393 0.086409003 0.59155273 -0.70327187 0.92303437
-6.8080001 8.9630003 -1.395 0.072175026 0.58713895 -0.71325684 0.92664808
-6.855 8.9659996 -1.4 0.063395709 0.6000967 -0.70969015 0.93155527
-6.8829999 8.974 -1.403 0.060364142 0.58858502 -0.7299509 0.93962997
-6.9299998 8.9759998 -1.4069999 0.050301697 0.58876449 -0.73003578 0.93921572
-6.9710002 8.9720001 -1.41 0.053627171 0.5820629 -0.74085248 0.9436819
-7.0089998 8.9619999 -1.4119999 0.041503463 0.60235322 -0.70648831 0.92934257
-7.0539999 8.9619999 -1.416 0.036750283 0.59324634 -0.72603017 0.93830252
-7.0960002 8.9569998 -1.419 0.038187992 0.60468352 -0.70561284 0.93004841
-7.1440001 8.9589996 -1.424 0.046354968 0.61926425 -0.70043218 0.93607813
-7.1890001 8.9589996 -1.428 0.034394231 0.61844194 -0.70245266 0.9365325
-7.224 8.974 -1.433 0.044074222 0.62072355 -0.69779921 0.9349674
-7.2690001 8.9709997 -1.436 0.029269785 0.6365875 -0.66492546 0.92099196
-7.3169999 8.9729996 -1.441 0.031967379 0.63348162 -0.67195761 0.92403895
-7.3610001 8.9689999 -1.444 0.050473642 0.61107308 -0.71497881 0.94188774
-7.408 8.9689999 -1.449 0.038489923 0.62620717 -0.69235331 0.93432862
-7.454 8.967 -1.4529999 0.031398371 0.62474823 -0.70014137 0.93887919
-7.4840002 8.9750004 -1.456 0.044676512 0.60174775 -0.73868489 0.95380908
-7.5370002 8.9809999 -1.461 0.048487768 0.57230049 -0.77875721 0.96764749
-7.579 8.974 -1.465 0.026648678 0.58187759 -0.76770461 0.96367109
-7.6300001 8.9770002 -1.47 0.029239111 0.5824343 -0.76570153 0.96248817
-7.684 8.9829998 -1.475 0.025176093 0.57507813 -0.77551436 0.96580082
-7.7259998 8.9750004 -1.478 0.015643753 0.58295649 -0.7658304 0.9625898
-7.7750001 8.9750004 -1.483 0.031762552 0.58649188 -0.76002061 0.96052742
-7.8109999 8.9879999 -1.488 0.014695512 0.58579421 -0.75652599 0.95692343
-7.8559999 8.9829998 -1.4910001 0.0017298926 0.58706528 -0.75746036 0.9583292
-7.9050002 8.9820004 -1.4960001 0.001807699 0.58689964 -0.76362956 0.96311194
-7.9590001 8.9860001 -1.501 -0.0060348846 0.57073587 -0.77724588 0.96430647
-8.0010004 8.9770002 -1.5039999 -0.020199228 0.57494986 -0.772771 0.96340561
-8.0539999 8.9799995 -1.5089999 -0.048299562 0.57629585 -0.77080852 0.96363664
-8.1079998 8.9820004 -1.515 -0.065949842 0.58006614 -0.76439804 0.96183705
-8.1339998 8.9829998 -1.517 -0.061386667 0.58508623 -0.75811338 0.95959896
-8.1870003 8.9849997 -1.523 -0.071408123 0.5842042 -0.75747442 0.95925033
-8.2370005 8.9829998 -1.527 -0.069788553 0.60914809 -0.71972114 0.94547886
-8.2889996 8.9829998 -1.5319999 -0.073118567 0.62523109 -0.68986744 0.93390435
-8.335 8.9759998 -1.536 -0.062047057 0.63680333 -0.66723007 0.9244265
-8.3909998 8.9799995 -1.5420001 -0.071355239 0.65677261 -0.64813256 0.92548239
-8.4440002 8.9799995 -1.5470001 -0.069833547 0.66711307 -0.62096453 0.91406429
-8.4980001 8.9809999 -1.552 -0.077543303 0.66581333 -0.61559665 0.91009867
-8.5360003 8.993 -1.557 -0.037718385 0.67304194 -0.5952785 0.89931345
-8.5860004 8.9890003 -1.562 -0.013577115 0.67892063 -0.56471097 0.88318521
-8.6379995 8.9870005 -1.566 -0.021526456 0.68336254 -0.55379981 0.87985337
-8.6920004 8.9860001 -1.572 -0.022075936 0.68512422 -0.54463083 0.87550282
-8.7399998 8.9790001 -1.576 -0.033023618 0.70209956 -0.50750452 0.86694592
-8.7980003 8.9829998 -1.582 -0.060594086 0.70038289 -0.51667082 0.87244284
-8.7810001 8.908 -1.572 -0.072887562 0.70353484 -0.48128971 0.85551953
-8.8430004 8.9440002 -1.582 -0.086081266 0.70471454 -0.46692488 0.84973609
-8.9549999 8.9440002 -1.594 -0.10944356 0.70180219 -0.49117914 0.86357462
-9.0059996 8.9390001 -1.598 -0.1632393 0.69742209 -0.47388333 0.85884225
-9.0670004 8.9440002 -1.605 -0.1619153 0.69899935 -0.47456485 0.86024904
-9.1140003 8.9329996 -1.608 -0.14060894 0.69271737 -0.50305229 0.86757702
-9.3120003 9.0710001 -1.642 0.037176169 0.67940819 -0.57807618 0.8928324
0.15000001 9.3170004 -1.163 0.071877494 0.55673188 -0.46940291 0.73174846
-0.041000001 9.3879995 -1.173 -0.053904094 0.6003406 -0.47112754 0.76503313
-0.093999997 10.11 -1.279 -0.14445667 0.60181618 -0.47134438 0.77795625
-0.124 10.05 -1.27 -0.14799976 0.59444714 -0.46856925 0.77125126
-0.156 10.044 -1.2690001 -0.15501694 0.59414679 -0.47305745 0.77512842
-0.18799999 10.063 -1.272 -0.16801381 0.59149063 -0.48303202 0.78192693
-0.219 10.046 -1.27 -0.18271941 0.58961993 -0.49637887 0.79210478
-0.25099999 10.05 -1.27 -0.18345971 0.59024489 -0.49690363 0.79306978
-0.28299999 10.063 -1.272 -0.17905651 0.59285587 -0.50022501 0.79609317
-0.29800001 10.056 -1.271 -0.17748405 0.58867854 -0.50528246 0.79583502
-0.361 10.044 -1.27 -0.18092668 0.58465928 -0.52221584 0.8045311
-0.39300001 10.051 -1.271 -0.18221349 0.58549911 -0.52863765 0.80961019
-0.42399999 10.044 -1.27 -0.18021587 0.58363122 -0.53935784 0.81486809
-0.456 10.052 -1.272 -0.17860433 0.58342302 -0.54220915 0.81625527
-0.48800001 10.055 -1.272 -0.15713423 0.58120102 -0.54292971 0.81071478
-0.51999998 10.065 -1.274 -0.16134541 0.5747422 -0.55389953 0.81434977
-0.53200001 9.993 -1.2640001 -0.16005567 0.58154994 -0.55504388 0.81969011
-0.56300002 9.9759998 -1.261 -0.14600036 0.58411491 -0.54176301 0.8099466
-0.59399998 9.9680004 -1.26 -0.14921692 0.57860911 -0.54408312 0.80813408
-0.62599999 9.9759998 -1.262 -0.14326243 0.57911205 -0.54098797 0.80533403
-0.65600002 9.9659996 -1.261 -0.13229342 0.58024228 -0.5316931 0.79804772
-0.68800002 9.9639997 -1.261 -0.11990745 0.5777846 -0.53495228 0.79648399
-0.70499998 9.9840002 -1.2640001 -0.11626433 0.57622689 -0.52899104 0.79081368
-0.73500001 9.9659996 -1.262 -0.13429677 0.57313281 -0.5545668 0.8087405
-0.76599997 9.9619999 -1.261 -0.14170238 0.57167977 -0.56286794 0.81468868
-0.801 9.9989996 -1.267 -0.13451216 0.55745929 -0.57059705 0.80897182
-0.838 10.069 -1.278 -0.13965374 0.55416787 -0.57516617 0.81081522
-0.87 10.063 -1.277 -0.13425741 0.5538429 -0.57718486 0.8111161
-0.903 10.078 -1.28 -0.13584432 0.54625839 -0.60467881 0.82612854
-0.91799998 10.068 -1.279 -0.14716652 0.53608632 -0.63723052 0.84564137
-0.94999999 10.073 -1.28 -0.16650587 0.53411323 -0.63924134 0.84948844
-0.98299998 10.076 -1.281 -0.26711264 0.51457125 -0.63797837 0.86206096
-1.0140001 10.071 -1.28 -0.31345117 0.48079836 -0.67762804 0.88803065
-1.0470001 10.078 -1.2819999 0.086737573 -0.32028669 -0.23399667 0.40603128
-1.077 10.063 -1.28 0.13005677 -0.28537083 -0.22103402 0.38367605
-1.1 9.7080002 -1.229 0.2779943 0.084267236 -0.15795982 0.33065557
-1.1160001 9.7119999 -1.23 0.26771501 0.074928842 -0.15735298 0.31944579
-1.146 9.7019997 -1.229 0.22643252 0.1461269 -0.11592504 0.2933656
-1.206 9.6929998 -1.229 0.20256168 0.24498308 -0.12202504 0.34049678
-5.8850002 8.9289999 -1.364 0.040470723 0.50065744 -0.81002605 0.95312011
-5.9310002 8.9370003 -1.369 0.011658181 0.50811732 -0.80002129 0.94781494
-5.9749999 8.9429998 -1.373 -0.017562311 0.52458692 -0.77458036 0.93566799
-6.0110002 8.9350004 -1.375 -0.013558514 0.53029144 -0.76732081 0.93283123
-6.0370002 8.9440002 -1.378 -0.030255962 0.54123586 -0.7470507 0.92300403
-6.079 8.9449997 -1.382 -0.039138485 0.54771596 -0.73384798 0.91654646
-6.1170001 8.9399996 -1.3839999 -0.045221388 0.55505735 -0.7224707 0.91219378
-6.1550002 8.9359999 -1.387 -0.041595884 0.55363667 -0.7261591 0.91408467
-6.1989999 8.9390001 -1.391 -0.030756522 0.55832225 -0.720227 0.91180956
-6.243 8.9420004 -1.395 -0.019250162 0.57843155 -0.71332633 0.9185794
-6.2800002 8.9350004 -1.397 -0.0021556765 0.59043407 -0.69053316 0.90854448
-6.309 8.9460001 -1.401 0.0038800128 0.59645855 -0.67612314 0.90162098
-6.3540001 8.9510002 -1.405 0.0050178133 0.61602461 -0.61833268 0.87283832
-6.395 8.948 -1.408 0.0072802156 0.62057835 -0.60262513 0.86505926
-6.4359999 8.9460001 -1.4119999 0.052745704 0.61225462 -0.63582855 0.88426
-6.4770002 8.9429998 -1.415 0.061966285 0.61173892 -0.63186866 0.88165885
-6.5240002 8.948 -1.419 0.096996367 0.59753525 -0.66158813 0.89674717
-6.5700002 8.9530001 -1.424 0.10683897 0.5895021 -0.67807597 0.90482831
-6.6069999 8.9440002 -1.426 0.10534081 0.59166378 -0.67351478 0.90265435
-6.6370001 8.9560003 -1.4299999 0.11885516 0.58025461 -0.69329375 0.91185427
-6.6859999 8.9619999 -1.4349999 0.094030619 0.600887 -0.68711489 0.917624
-6.7259998 8.9560003 -1.438 0.084388472 0.59355402 -0.70207 0.92321724
-6.7659998 8.9510002 -1.441 0.080766372 0.58880937 -0.70950973 0.92553967
-6.8130002 8.9549999 -1.4450001 0.078270406 0.60196066 -0.70430344 0.92979902
-6.855 8.9510002 -1.449 0.063098274 0.60383511 -0.70269877 0.92864621
-6.881 8.9560003 -1.452 0.064167008 0.60206574 -0.70596939 0.93005019
-6.9320002 8.9639997 -1.457 0.049713664 0.60362303 -0.70388126 0.92859089
-6.9660001 8.9499998 -1.4579999 0.051917832 0.60751325 -0.69619882 0.92545158
-7.0100002 8.948 -1.462 0.032583892 0.60588753 -0.69960809 0.92607391
-7.0549998 8.9469995 -1.466 0.035089843 0.60977221 -0.69577408 0.92582667
-7.0970001 8.9420004 -1.469 0.048481751 0.62807214 -0.68047571 0.927293
-7.1420002 8.9420004 -1.473 0.041556504 0.6289292 -0.68150538 0.92829335
-7.1810002 8.9610004 -1.479 0.033608563 0.63569784 -0.66695857 0.9219951
-7.2210002 8.9519997 -1.482 0.040497836 0.63574111 -0.66665125 0.92207956
-7.2670002 8.9530001 -1.4859999 0.035447195 0.64182884 -0.65230292 0.91580558
-7.3179998 8.9569998 -1.4910001 0.034721032 0.64867973 -0.63421786 0.90786743
-7.355 8.9449997 -1.493 0.039363869 0.65466487 -0.61618739 0.89990139
-7.4029999 8.9460001 -1.498 0.032701243 0.63755757 -0.66628569 0.92275983
-7.4590001 8.9560003 -1.5039999 0.049641922 0.62613332 -0.69026291 0.93325782
-7.4850001 8.9580002 -1.507 0.034309763 0.63109291 -0.68881238 0.93483573
-7.5359998 8.9619999 -1.512 0.038070194 0.62484926 -0.7006073 0.93954057
-7.5879998 8.967 -1.518 0.029570825 0.62126559 -0.70758015 0.9420802
-7.6279998 8.9560003 -1.52 0.011196315 0.61564809 -0.71681488 0.94497168
-7.6789999 8.9589996 -1.526 0.021288872 0.60475332 -0.73418581 0.95142448
-7.7319999 8.9639997 -1.531 0.026292369 0.61457574 -0.71778208 0.94530725
-7.7729998 8.9540005 -1.534 0.02636198 0.62101674 -0.7064631 0.94098186
-7.822 8.9540005 -1.539 0.0050313966 0.60852724 -0.71919632 0.94211149
-7.8660002 8.9750004 -1.545 -0.0011687959 0.60939491 -0.7148506 0.9393481
-7.902 8.96 -1.5470001 -0.01326495 0.61590153 -0.7102626 0.94020402
-7.9559999 8.9630003 -1.552 -0.01582833 0.59907132 -0.72983944 0.94435298
-8.0129995 8.9700003 -1.559 -0.01925472 0.60956448 -0.72236693 0.9453854
-8.0539999 8.96 -1.562 -0.030902999 0.6179232 -0.70822883 0.94041061
-8.1040001 8.9580002 -1.566 -0.042773332 0.61348915 -0.71596158 0.94382173
-8.1560001 8.9580002 -1.571 -0.045430534 0.62276411 -0.69785154 0.93642718
-8.191 8.9689999 -1.576 -0.056085125 0.62083256 -0.70067888 0.93783236
-8.2340002 8.9589996 -1.579 -0.032321561 0.63731533 -0.6681788 0.92394722
-8.29 8.9639997 -1.585 -0.047233917 0.64598352 -0.65735722 0.92284572
-8.3380003 8.9580002 -1.589 -0.054370798 0.64829636 -0.64530468 0.91633099
-8.3950005 8.9630003 -1.596 -0.044057701 0.65415573 -0.63026416 0.90944695
-8.4540005 8.9689999 -1.602 -0.065439992 0.66912794 -0.61580324 0.91171718
-8.4949999 8.9560003 -1.605 -0.048530661 0.67171621 -0.60006762 0.90201944
-8.5389996 8.974 -1.6109999 -0.011013441 0.67328382 -0.59018439 0.89540493
-8.6059999 8.9870005 -1.619 0.0037035681 0.67952561 -0.55395269 0.87671679
-8.7419996 9.0710001 -1.642 0.056348048 0.6683411 -0.56737208 0.87850213
-8.8559999 9.132 -1.66 0.40639627 0.25095376 -0.60695899 0.77235675
-8.9040003 9.1239996 -1.664 0.40475026 0.056386411 -0.54875505 0.68420339
-8.8850002 9.0480003 -1.654 -0.081640489 0.70115721 -0.51415318 0.87329268
-8.8909998 8.9969997 -1.65 -0.10732105 0.697173 -0.53097451 0.88289404
-8.9029999 8.9250002 -1.643 -0.11802591 0.69366997 -0.5448451 0.88992381
-8.9490004 8.915 -1.647 -0.095734715 0.694857 -0.54426926 0.8878178
-9.0120001 8.9209995 -1.654 -0.1383062 0.6886363 -0.53885531 0.88527602
-9.0609999 8.9139996 -1.658 -0.13465911 0.68926215 -0.53482652 0.88275409
-9.118 8.9130001 -1.664 -0.13165215 0.69604397 -0.47376558 0.85221088
-9.1040001 8.8439999 -1.656 -0.05076848 0.67054945 -0.59981042 0.90110296
0.175 9.3979998 -1.242 0.017055258 0.5780822 -0.48601758 0.75543565
0.145 9.375 -1.239 0.02038458 0.57271034 -0.48366982 0.74989945
-0.017000001 9.382 -1.24 -0.039010763 0.59787071 -0.4835794 0.76994818
-0.046999998 9.4820004 -1.255 -0.065169021 0.59804022 -0.47931474 0.7691825
-0.079999998 10.147 -1.357 -0.15275605 0.59884679 -0.46393439 0.77277875
-0.112 10.115 -1.352 -0.14306636 0.59450901 -0.46215093 0.76648057
-0.14300001 10.081 -1.347 -0.14651451 0.5943777 -0.46146515 0.76661688
-0.175 10.092 -1.349 -0.15193377 0.59090203 -0.46495685 0.76709449
-0.191 10.09 -1.348 -0.17388827 0.5909065 -0.46474651 0.77161968
-0.223 10.097 -1.35 -0.16943555 0.59142131 -0.47131771 0.77500188
-0.25400001 10.086 -1.348 -0.18833427 0.59002072 -0.48683894 0.78778571
-0.28600001 10.097 -1.35 -0.18053269 0.58862668 -0.50029415 0.79332697
-0.31799999 10.086 -1.348 -0.19302842 0.58292377 -0.5113222 0.79906851
-0.34999999 10.091 -1.349 -0.1887778 0.58387262 -0.51960415 0.80407262
-0.366 10.097 -1.35 -0.188729 0.58386976 -0.51970744 0.80412585
-0.398 10.105 -1.352 -0.1903539 0.5821203 -0.5237968 0.80589187
-0.42899999 10.084 -1.349 -0.19185933 0.58090383 -0.53734189 0.81424534
-0.461 10.093 -1.35 -0.18104561 0.58234662 -0.53628218 0.81209826
-0.493 10.105 -1.352 -0.17441893 0.56890047 -0.54990005 0.81022209
-0.52399999 10.078 -1.348 -0.17310953 0.57245684 -0.55508065 0.8159585
-0.54799998 9.9379997 -1.327 -0.17875034 0.57002902 -0.56093937 0.81947404
-0.56300002 9.9329996 -1.327 -0.16712934 0.5703491 -0.56354457 0.8190316
-0.59500003 9.9370003 -1.3279999 -0.1524729 0.57166672 -0.56062645 0.81507844
-0.62599999 9.9370003 -1.3279999 -0.14828274 0.57275158 -0.55479521 0.8110671
-0.65799999 9.9370003 -1.3279999 -0.12663117 0.5730328 -0.55229527 0.80587345
-0.68900001 9.9390001 -1.329 -0.14609642 0.5675534 -0.58194751 0.82590795
-0.72000003 9.9390001 -1.329 -0.12825394 0.56617308 -0.57971489 0.8204087
-0.75099999 9.9289999 -1.3279999 -0.12178174 0.56226623 -0.59600008 0.82836598
-0.78299999 9.9379997 -1.33 -0.17984605 0.54662299 -0.64312637 0.86299062
-0.81199998 10.1 -1.355 -0.11627398 0.55254608 -0.58551812 0.81342381
-0.84399998 10.106 -1.3559999 -0.11024139 0.55110085 -0.59110004 0.81563753
-0.87599999 10.103 -1.3559999 -0.10568409 0.54485637 -0.60903364 0.82399005
-0.90799999 10.106 -1.357 -0.094278231 0.54025149 -0.62320834 0.83014977
-0.94 10.109 -1.358 -0.091345131 0.54177654 -0.61732435 0.82641095
-0.972 10.11 -1.358 -0.13763134 0.54120946 -0.62144876 0.83549309
-1.0039999 10.111 -1.359 -0.1352604 0.54070121 -0.63359386 0.84385681
-1.02 10.105 -1.358 -0.13826028 0.54199427 -0.62909669 0.8418054
-1.052 10.108 -1.359 -0.1741991 0.54424214 -0.60791767 0.83433127
-1.101 9.9639997 -1.3380001 0.18359412 -0.13075459 -0.12944445 0.25992197
-5.974 8.9420004 -1.45 -0.012949105 0.54450071 -0.76692063 0.94064653
-6.0149999 8.9429998 -1.454 -0.015688822 0.54076326 -0.77166271 0.94240886
-6.053 8.9390001 -1.456 -0.032444466 0.55572391 -0.75080389 0.93465936
-6.1020002 8.9510002 -1.462 -0.039760701 0.55479312 -0.74924684 0.93313831
-6.131 8.9329996 -1.462 -0.043118708 0.57120621 -0.72114307 0.92096859
-6.164 8.9510002 -1.467 -0.039952368 0.57111216 -0.72220886 0.92160237
-6.2030001 8.9460001 -1.47 -0.037555486 0.58703297 -0.69152796 0.90787059
-6.2470002 8.9510002 -1.475 -0.013006009 0.59418398 -0.68236738 0.90490276
-6.2820001 8.941 -1.477 -0.0024794377 0.60402632 -0.65860307 0.89365089
-6.3280001 8.9460001 -1.4809999 0.01455947 0.61323798 -0.6296522 0.87905324
-6.368 8.9440002 -1.484 0.021625681 0.62121654 -0.60309136 0.8660813
-6.3990002 8.9580002 -1.489 0.015507912 0.62544262 -0.58385527 0.85574877
-6.4400001 8.9549999 -1.492 0.034650344 0.62171 -0.59836447 0.86357635
-6.4829998 8.9560003 -1.4960001 0.048900943 0.62342948 -0.59076571 0.86026722
-6.5180001 8.9449997 -1.498 0.081412196 0.60942519 -0.63230014 0.88194692
-6.572 8.96 -1.505 0.10007226 0.59389883 -0.66972637 0.90070176
-6.6020002 8.9420004 -1.505 0.10098998 0.59298599 -0.67165577 0.90163898
-6.6560001 8.9560003 -1.512 0.10656188 0.59239262 -0.69110656 0.91646755
-6.6820002 8.9619999 -1.515 0.094509766 0.59538245 -0.68778527 0.91458237
-6.7249999 8.96 -1.5190001 0.080600061 0.5922932 -0.70286322 0.92267239
-6.7659998 8.9560003 -1.522 0.077475071 0.59463596 -0.69873726 0.92077577
-6.8189998 8.9680004 -1.528 0.075686529 0.60560369 -0.69762444 0.92691106
-6.8569999 8.9589996 -1.531 0.068919748 0.61075586 -0.688016 0.92257178
-6.8979998 8.9549999 -1.534 0.061346702 0.60942793 -0.69162989 0.92386025
-6.9380002 8.948 -1.5369999 0.058559652 0.61110175 -0.68844104 0.92240208
-6.9629998 8.9519997 -1.54 0.054441649 0.61100602 -0.68895572 0.92247075
-7.0089998 8.9530001 -1.544 0.051551186 0.61717755 -0.67586064 0.91670781
-7.0619998 8.9619999 -1.55 0.046516165 0.61761189 -0.67911375 0.91913205
-7.0960002 8.948 -1.552 0.051071431 0.63598835 -0.66274464 0.91995645
-7.1459999 8.9530001 -1.557 0.051989969 0.63133925 -0.67322475 0.92440456
-7.197 8.9580002 -1.563 0.041859854 0.63950288 -0.6577484 0.91834044
-7.2360001 8.9499998 -1.566 0.050724115 0.64573467 -0.64118934 0.91141099
-7.2750001 8.941 -1.568 0.046539657 0.65038788 -0.62864649 0.90574098
-7.3179998 8.9650002 -1.575 0.041391667 0.6520555 -0.62413108 0.90356475
-7.3509998 8.948 -1.577 0.043746639 0.65472537 -0.61214066 0.89738244
-7.4029999 8.9540005 -1.582 0.035380132 0.65551901 -0.60999137 0.89612859
-7.4559999 8.9610004 -1.5880001 0.026673537 0.65907252 -0.60894632 0.89772141
-7.4970002 8.9519997 -1.591 0.036660574 0.65496278 -0.62108862 0.90336668
-7.5510001 8.9589996 -1.597 0.024114953 0.65426701 -0.63561124 0.91249573
-7.5939999 8.9530001 -1.601 0.015036469 0.65540946 -0.63232529 0.9108364
-7.6199999 8.9549999 -1.604 0.011244741 0.6537078 -0.63682431 0.91269135
-7.6799998 8.9689999 -1.6109999 -0.011484162 0.65121865 -0.64169365 0.91432399
-7.723 8.9630003 -1.615 -0.0085367775 0.64926308 -0.64701432 0.91664767
-7.7670002 8.9560003 -1.619 0.0040147211 0.64558035 -0.64903456 0.915443
-7.8309999 8.974 -1.627 -0.0060558179 0.64482558 -0.65099645 0.9163149
-7.8829999 8.9759998 -1.633 -0.019684812 0.63741708 -0.65743494 0.9159196
-8.415 9.5240002 -1.749 -0.033782341 0.61224461 -0.73010993 0.95343864
-8.4540005 9.5369997 -1.755 -0.049875025 0.56923509 -0.78524685 0.97114819
-8.5609999 9.5369997 -1.766 -0.10863301 0.24435379 0.034920961 0.26968384
-8.6110001 9.5319996 -1.77 -0.10853778 0.24358529 0.035016567 0.26896173
-8.6780005 9.5459995 -1.779 -0.10932888 0.24348746 0.0351367 0.26920909
-8.7159996 9.5270004 -1.781 -0.11093584 0.24225102 0.034999847 0.26873279
-8.783 9.5410004 -1.789 -0.11568542 0.25148839 0.039539248 0.27962989
-8.8590002 9.5939999 -1.803 -0.11903408 0.26554397 0.046377271 0.29467535
-8.8199997 9.4910002 -1.7869999 -0.1319516 0.29977039 0.023250103 0.32835054
-8.8780003 9.493 -1.794 -0.13944416 0.30140427 0.021735281 0.3328087
-8.8870001 9.4440002 -1.789 -0.13944416 0.30140427 0.021735281 0.3328087
-8.8909998 9.3879995 -1.783 -0.17374691 0.30784091 0.013417184 0.3537429
-8.8889999 9.3269997 -1.776 0.42858702 0.10212371 -0.4260844 0.61291432
-8.8929996 9.2720003 -1.771 0.42527226 0.091330819 -0.50331783 0.66522676
-8.8719997 9.2209997 -1.763 0.41009721 0.10596921 -0.59660381 0.73167294
-8.8809996 9.1730003 -1.7589999 -0.41325802 0.28981936 -0.11463901 0.51760948
-8.8839998 9.118 -1.753 0.39930364 0.0093056858 -0.42067748 0.58008581
-8.842 9.0179996 -1.737 -0.028956424 0.67136067 -0.62871724 0.92024398
-8.8719997 8.9919996 -1.738 -0.04034742 0.66709971 -0.64113462 0.92612284
-8.9029999 8.9110003 -1.732 -0.11768365 0.66058457 -0.64959031 0.93391061
-8.9530001 8.9329996 -1.74 -0.080948852 0.65991908 -0.65733707 0.93495345
-9.0120001 8.9359999 -1.747 -0.094203576 0.65490824 -0.67321998 0.94393021
-9.0670004 8.934 -1.753 -0.10296188 0.63941038 -0.68978089 0.94617361
-9.1190004 8.9289999 -1.758 -0.068743363 0.64685297 -0.67803574 0.93961525
-9.2220001 8.9729996 -1.774 -0.10067232 0.66972977 -0.62398994 0.9208889
0.131 9.2880001 -1.35 0.037363425 0.56914455 -0.50604373 0.76249707
-0.030999999 9.4230003 -1.3710001 -0.06480775 0.59320962 -0.46160337 0.75443709
-0.059999999 9.3579998 -1.3609999 -0.08421278 0.59493327 -0.45799839 0.75551301
-0.090000004 9.4440002 -1.374 -0.094048195 0.58783913 -0.46361098 0.75454295
-0.119 9.4119997 -1.369 -0.0941374 0.59565169 -0.45329916 0.75441563
-0.134 9.3900003 -1.3660001 -0.098638818 0.59431648 -0.42721274 0.7385475
-0.163 9.3979998 -1.367 -0.10335545 0.59603494 -0.41912967 0.73594135
-0.193 9.3970003 -1.367 -0.12013862 0.5913735 -0.41774595 0.73393977
-0.222 9.3990002 -1.368 -0.13321394 0.59203416 -0.4198814 0.73793685
-0.252 9.3979998 -1.368 -0.13889812 0.59290767 -0.41835356 0.73881787
-0.28099999 9.3970003 -1.368 -0.15185967 0.59630877 -0.41918936 0.74455708
-0.31099999 9.3959999 -1.368 -0.14947324 0.59597063 -0.4156169 0.74179554
-0.32600001 9.4029999 -1.369 -0.15891927 0.58903587 -0.3710126 0.71405107
-0.35499999 9.3959999 -1.368 -0.1532129 0.59553081 -0.41279846 0.74063063
-0.38499999 9.4049997 -1.369 -0.15414912 0.59028089 -0.38796726 0.72298831
-0.41499999 9.4060001 -1.37 -0.14998782 0.58746344 -0.36468491 0.70753425
-0.44400001 9.401 -1.369 -0.13515745 0.58351827 -0.34783477 0.69263995
-0.47400001 9.3990002 -1.369 -0.14418578 0.5844515 -0.35126016 0.69696254
-0.50400001 9.4110003 -1.3710001 -0.13671242 0.58227324 -0.33996969 0.6879766
-0.51899999 9.4049997 -1.37 -0.13552262 0.58266097 -0.3415029 0.68882829
-0.54799998 9.3990002 -1.37 -0.13353395 0.58078367 -0.3346971 0.68349332
-0.57800001 9.401 -1.37 -0.15156604 0.57246804 -0.30766118 0.6673435
-0.60799998 9.4130001 -1.373 -0.14101797 0.57084507 -0.30576885 0.66275543
-0.63700002 9.4049997 -1.372 -0.14101797 0.57084507 -0.30576885 0.66275543
-0.667 9.4049997 -1.372 -0.14322914 0.57075948 -0.30562353 0.6630888
-0.69700003 9.4090004 -1.373 -0.14317641 0.56823152 -0.2985881 0.65767878
-0.72600001 9.4049997 -1.373 -0.14575736 0.5716086 -0.30069822 0.66211855
-0.741 9.3999996 -1.372 -0.15539536 0.56954414 -0.29589903 0.66036695
-0.77200001 9.4169998 -1.375 -0.15677372 0.56890839 -0.29432729 0.65944165
-0.801 9.4069996 -1.374 -0.16398874 0.56802547 -0.2926861 0.6597048
-0.83099997 9.4119997 -1.375 -0.17448476 0.56021744 -0.29114479 0.65502197
-0.861 9.4090004 -1.375 -0.18051174 0.55976689 -0.2911047 0.65625101
-0.88999999 9.408 -1.375 -0.0057729185 0.56115317 -0.35631707 0.66474664
-0.90600002 9.4169998 -1.377 0.12716973 0.50026172 -0.36183894 0.63036603
-0.93599999 9.4119997 -1.377 0.17811809 0.4315902 -0.28755209 0.54834509
-0.949 9.2559996 -1.352 -0.25240204 0.56351918 -0.36316961 0.71634686
-6.6479998 8.9610004 -1.646 0.079709262 0.61755037 -0.63576663 0.88989955
-6.684 8.9799995 -1.652 0.075497873 0.61975968 -0.62988174 0.88687819
-6.73 8.9829998 -1.6569999 0.085584268 0.61417162 -0.6400888 0.8912043
-6.7680001 8.974 -1.66 0.083588406 0.61637127 -0.63400871 0.88818216
-6.8140001 8.9759998 -1.664 0.058256343 0.63223147 -0.63721341 0.89952844
-6.855 8.9720001 -1.668 0.059538364 0.63293839 -0.63504088 0.89857262
-6.8979998 8.9689999 -1.6720001 0.048336416 0.63187325 -0.63938415 0.90022904
-6.9159999 8.9350004 -1.669 0.051606383 0.63468778 -0.63104987 0.8965019
-6.9899998 8.9709997 -1.681 0.056705579 0.63388491 -0.63296616 0.89759225
-7.0180001 8.9790001 -1.684 0.057786778 0.63630915 -0.62554932 0.89417034
-7.0619998 8.9770002 -1.689 0.049364284 0.63492239 -0.63050061 0.8961553
-7.1149998 8.9849997 -1.6950001 0.047424722 0.63876295 -0.62450844 0.89458257
-7.1589999 8.9829998 -1.699 0.06988553 0.6548472 -0.60780013 0.89617515
-7.2179999 8.9989996 -1.707 0.056034811 0.65451026 -0.61481375 0.89973301
-7.3340001 9.0839996 -1.729 0.04862389 0.63954562 -0.62542099 0.89584279
-7.4580002 9.2069998 -1.756 0.35802498 0.54139924 -0.5430395 0.84627831
-7.6589999 9.3940001 -1.8 -0.034970686 0.24963763 0.029639363 0.25381172
-7.7420001 9.434 -1.813 -0.041229025 0.24984296 0.029970825 0.25498939
-7.8909998 9.493 -1.835 -0.056148507 0.24982038 0.033129126 0.25818679
-7.9359999 9.4860001 -1.839 -0.056148507 0.24982038 0.033129126 0.25818679
-7.9910002 9.4919996 -1.845 -0.067035876 0.24697748 0.032207698 0.25793222
-8.026 9.5030003 -1.85 -0.067035876 0.24697748 0.032207698 0.25793222
-8.0780001 9.5030003 -1.855 0.019988846 0.68445247 -0.60939002 0.91664112
-8.1230001 9.4960003 -1.859 0.019596865 0.68322706 -0.60994649 0.9160884
-8.1709995 9.4910002 -1.864 -0.0091324691 0.64024591 -0.70687175 0.95376408
-8.177 9.4390001 -1.858 -0.0091324691 0.64024591 -0.70687175 0.95376408
-7.848 9.0030003 -1.771 -0.020033434 0.64602852 -0.64708149 0.9145866
-7.8109999 8.9040003 -1.756 -0.024068944 0.64713705 -0.65295923 0.91963112
-7.816 8.8809996 -1.753 -0.024513161 0.64711595 -0.65295762 0.91962683
-7.8590002 8.875 -1.757 -0.029854648 0.64101988 -0.66662049 0.92530036
-7.8920002 8.8559999 -1.758 -0.024496021 0.64001805 -0.66954088 0.92655712
-7.9369998 8.8500004 -1.763 -0.038303811 0.62554103 -0.689605 0.93183893
-7.993 8.8559999 -1.7690001 -0.031467684 0.61762416 -0.70542765 0.93812472
-8.0290003 8.8389997 -1.771 -0.03493268 0.61559588 -0.70835972 0.93912303
-8.085 8.8450003 -1.778 -0.020734046 0.60694075 -0.71480942 0.93795496
-8.1400003 8.8500004 -1.784 -0.030428676 0.60139203 -0.7303564 0.94658267
-8.1750002 8.8590002 -1.789 -0.015986174 0.60755879 -0.71559823 0.93886322
-8.2329998 8.8660002 -1.796 0.021613777 0.61079013 -0.70400739 0.9322865
-8.2869997 8.8669996 -1.802 0.040836856 0.62961686 -0.68997252 0.93495834
-8.3389997 8.8669996 -1.808 -0.0061244667 0.6602537 -0.62244725 0.90742105
-8.3900003 8.8649998 -1.813 -0.010808285 0.65993726 -0.62434638 0.90853864
-8.4530001 8.8760004 -1.821 -0.0072114505 0.65803027 -0.62776524 0.90947515
-8.4980001 8.8669996 -1.825 -0.027991354 0.65738535 -0.62913758 0.91035873
-8.5349998 8.8769999 -1.83 -0.031116437 0.65811032 -0.62759143 0.9099167
-8.5819998 8.8699999 -1.835 -0.022867788 0.65695202 -0.63863266 0.91649365
-8.6400003 8.8739996 -1.842 -0.018864706 0.64028668 -0.6732316 0.92928129
-8.6870003 8.8669996 -1.846 -0.043529287 0.62469804 -0.70338398 0.94174916
-8.7539997 8.8789997 -1.855 -0.049494524 0.60661817 -0.73347771 0.95311326
-8.8009996 8.8710003 -1.859 -0.094857924 0.60610938 -0.73910224 0.96054083
-8.9119997 8.8979998 -1.875 -0.09457241 0.56913042 -0.78647244 0.97539335
-8.9519997 8.882 -1.877 -0.10922953 0.58955979 -0.76350605 0.97080034
-9.0100002 8.8830004 -1.8839999 -0.087880373 0.58790112 -0.76839441 0.97148377
-9.073 8.8889999 -1.892 -0.074562147 0.56778526 -0.79195011 0.97730476
-9.132 8.8909998 -1.899 -0.033789944 0.57725465 -0.77960503 0.97064346
-9.2419996 8.8850002 -1.911 0.044015512 0.55517691 -0.78211284 0.96013504
-9.2889996 8.9020004 -1.918 0.040807046 0.57253796 -0.76413119 0.95569944
-9.3380003 8.8929996 -1.923 0.0078144819 0.64396328 -0.66984195 0.92921364
-9.4060001 8.9020004 -1.931 -0.038174324 0.63866556 -0.70307064 0.95060998
-9.4619999 8.8979998 -1.937 -0.046208881 0.62674463 -0.71510655 0.9520092
0.167 9.3260002 -1.448 0.035252899 0.56122768 -0.52645802 0.77030993
0.155 9.4680004 -1.472 0.043291301 0.55415827 -0.52328956 0.76341176
0.043000001 10.58 -1.659 0.35154384 0.087367974 -0.29947877 0.47000402
0.0089999996 10.487 -1.643 0.35931152 0.047822449 -0.34633374 0.50133705
-0.024 9.4499998 -1.4680001 -0.024437942 0.57063347 -0.52837139 0.77807206
-0.039000001 9.4639997 -1.471 -0.05020237 0.57744414 -0.51386547 0.77460939
-0.068999998 9.4750004 -1.473 -0.05941353 0.58009577 -0.49256089 0.76331991
-0.097999997 9.4119997 -1.462 -0.040309064 0.58779609 -0.50425375 0.77550042
-0.127 9.4209995 -1.464 -0.070508003 0.58465338 -0.49860084 0.77161765
-0.15700001 9.4289999 -1.465 -0.074512556 0.58790308 -0.49073094 0.76941472
-0.18700001 9.4239998 -1.464 -0.086093545 0.59202939 -0.47580469 0.76439583
-0.21600001 9.4180002 -1.4630001 -0.093933649 0.59213269 -0.47332978 0.76386237
-0.24600001 9.4189997 -1.464 -0.12902594 0.59517372 -0.46959418 0.76902413
-0.26100001 9.4209995 -1.464 -0.14127415 0.5954442 -0.46553957 0.76892084
-0.28999999 9.4180002 -1.464 -0.1323446 0.59809381 -0.44580522 0.75761044
-0.31999999 9.4230003 -1.465 -0.14052977 0.59870881 -0.46286821 0.76970631
-0.34999999 9.4200001 -1.464 -0.13528176 0.59638423 -0.42386889 0.74406999
-0.38 9.4280005 -1.466 -0.13940807 0.59486252 -0.42877829 0.74642271
-0.40900001 9.4309998 -1.467 -0.14525364 0.59266943 -0.40535408 0.73257601
-0.42399999 9.4289999 -1.466 -0.14210153 0.59425539 -0.40449899 0.73276997
-0.454 9.4289999 -1.467 -0.13868637 0.5949471 -0.41037989 0.73593998
-0.48300001 9.4280005 -1.467 -0.13409254 0.59590125 -0.4200286 0.74128479
-0.51300001 9.4280005 -1.467 -0.1481268 0.59660906 -0.42671314 0.74831009
-0.54299998 9.4300003 -1.4680001 -0.1516269 0.5975607 -0.42959923 0.75141531
-0.57300001 9.4289999 -1.4680001 -0.1354769 0.59691495 -0.42203316 0.74348736
-0.602 9.4250002 -1.467 -0.13762115 0.59711003 -0.42383701 0.74506223
-0.61799997 9.4359999 -1.469 -0.15643322 0.59010595 -0.40182006 0.73085958
-0.64700001 9.4359999 -1.47 -0.14075519 0.59618783 -0.41812783 0.74167573
-0.67699999 9.4320002 -1.469 -0.15468422 0.59358007 -0.4002015 0.73241091
-0.70700002 9.4390001 -1.471 -0.15757558 0.59601855 -0.40044206 0.73513401
-0.736 9.4289999 -1.47 -0.16014633 0.59756517 -0.39935941 0.73635519
-0.76599997 9.4289999 -1.47 -0.16655879 0.5980708 -0.40554157 0.74154872
-0.796 9.434 -1.471 -0.18138342 0.58933491 -0.40386844 0.73710597
-0.82700002 9.441 -1.473 -0.18172795 0.58587337 -0.37895375 0.72102606
-0.84200001 9.4460001 -1.474 -0.20291802 0.58498532 -0.38597661 0.72963107
-6.7459998 8.8870001 -1.756 0.068696797 0.62501812 -0.60311562 0.87127227
-6.7740002 8.8660002 -1.756 0.064013496 0.63436455 -0.60492569 0.878892
-6.8140001 8.8610001 -1.76 0.07322184 0.633793 -0.606372 0.88019431
-6.8449998 8.8439999 -1.761 0.065625727 0.6348061 -0.60324311 0.87817299
-6.8850002 8.8380003 -1.7640001 0.073693976 0.63351005 -0.60703647 0.88048798
-6.9180002 8.8219995 -1.765 0.053173058 0.63822508 -0.60496652 0.88098985
-6.9720001 8.835 -1.773 0.041842159 0.63654518 -0.6075089 0.88091296
-7.0029998 8.8450003 -1.777 0.036234275 0.64861512 -0.60764104 0.8895179
-7.046 8.842 -1.781 0.058466621 0.64947498 -0.60392785 0.88879973
-7.0890002 8.8400002 -1.786 0.054262061 0.64741796 -0.6114437 0.89216465
-7.1290002 8.8330002 -1.789 0.059136443 0.6499123 -0.61001408 0.89330864
-7.1820002 8.8409996 -1.796 0.045649216 0.65290093 -0.61421329 0.89756417
-7.2270002 8.8400002 -1.8 0.049493216 0.65714419 -0.60982382 0.89787143
-7.2719998 8.8380003 -1.8049999 0.031294361 0.64633763 -0.64571571 0.9141556
-7.3189998 8.8380003 -1.8099999 0.044807572 0.64188147 -0.6563496 0.91913778
-7.3520002 8.8500004 -1.8150001 0.03800514 0.62328976 -0.6972627 0.93600738
-7.3979998 8.849 -1.8200001 0.030041231 0.62341988 -0.69554478 0.93452519
-7.4510002 8.8559999 -1.827 0.046092946 0.62105972 -0.69974226 0.93673849
-7.4920001 8.8479996 -1.83 0.050596092 0.61952162 -0.70250291 0.93801779
-7.5370002 8.8450003 -1.835 0.043230083 0.61657983 -0.70798117 0.9398281
-7.5840001 8.8439999 -1.84 0.033326946 0.61372304 -0.71121967 0.94000006
-7.6300001 8.8409996 -1.844 0.023751104 0.62136865 -0.7025876 0.93823898
-7.6609998 8.849 -1.849 0.035575248 0.62116891 -0.70274884 0.93860126
-7.7129998 8.8529997 -1.855 0.0068109781 0.62918055 -0.68671298 0.931391
-7.75 8.8389997 -1.857 -0.0027697086 0.6314382 -0.69171607 0.93658578
-7.8060002 8.8470001 -1.865 -0.038971417 0.63083839 -0.68784845 0.93413669
-7.8629999 8.8549995 -1.872 -0.053962596 0.61911434 -0.70626342 0.94075638
-7.8959999 8.8360004 -1.873 -0.04930535 0.59827572 -0.74128854 0.95387298
-7.947 8.8380003 -1.8789999 -0.048631642 0.59598088 -0.74444115 0.95485646
-7.9829998 8.8500004 -1.885 -0.029059216 0.59043252 -0.754866 0.95878971
-8.0229998 8.8380003 -1.888 -0.057818186 0.5689494 -0.7758075 0.96380681
-8.0790005 8.8439999 -1.895 -0.027048498 0.57110858 -0.78264689 0.96924341
-8.1370001 8.8520002 -1.902 -0.0087413872 0.57088977 -0.78109467 0.9675228
-8.1859999 8.849 -1.908 -0.021219257 0.56286961 -0.78405046 0.9654054
-8.2349997 8.8470001 -1.913 0.022515807 0.56788319 -0.76884818 0.95609927
-8.2910004 8.8509998 -1.92 0.039263323 0.57816869 -0.75413966 0.95107692
-8.323 8.8570004 -1.924 0.040572621 0.59066123 -0.74630415 0.95262623
-8.3760004 8.8579998 -1.931 0.035961065 0.62349045 -0.69378728 0.9334743
-8.4420004 8.8719997 -1.9400001 -0.030110376 0.66029763 -0.6211586 0.90704888
-8.4809999 8.8559999 -1.943 -0.046715755 0.65771896 -0.63020521 0.91210485
-8.5410004 8.8640003 -1.951 -0.050459746 0.6546877 -0.64393812 0.91968387
-8.5869999 8.8559999 -1.955 -0.061086521 0.63929588 -0.67568386 0.93219066
-8.6379995 8.8529997 -1.961 -0.069686122 0.6257841 -0.70156884 0.94268805
-8.677 8.8640003 -1.967 -0.070876621 0.57606328 -0.77511537 0.96833682
-8.7290001 8.8620005 -1.973 -0.089969873 0.56450206 -0.78743541 0.97304249
0.163 9.3509998 -1.535 0.046382889 0.55966699 -0.49436051 0.74817836
0.134 9.3199997 -1.529 0.051830381 0.56100297 -0.49562725 0.75037128
0.046999998 10.152 -1.676 0.20019963 -0.26190948 -0.3385815 0.472561
0.016000001 10.128 -1.6720001 0.24251324 -0.21750842 -0.33909416 0.47022063
-0.013 9.4589996 -1.553 -0.0098550171 0.56786573 -0.48869586 0.74926114
-0.028000001 9.3640003 -1.5369999 -0.048037708 0.5854103 -0.51634306 0.78206331
-0.057999998 9.467 -1.5549999 -0.01703319 0.57167804 -0.48206809 0.74799436
-0.088 9.4580002 -1.553 -0.010975048 0.57019776 -0.47586957 0.74276364
-0.117 9.4250002 -1.548 -0.043240011 0.57958287 -0.50885755 0.77247787
-0.147 9.4259996 -1.548 -0.06888254 0.58371186 -0.50984538 0.77807885
-0.176 9.4259996 -1.548 -0.073307469 0.58103406 -0.50267738 0.77178955
-0.206 9.4350004 -1.55 -0.088634782 0.58283997 -0.50526142 0.77643263
-0.236 9.434 -1.55 -0.088291936 0.58249718 -0.49771607 0.77124554
-0.25 9.4320002 -1.549 -0.10291302 0.58381009 -0.50123096 0.77631038
-0.28 9.4309998 -1.549 -0.11616383 0.59414935 -0.48867384 0.77801645
-0.31 9.4359999 -1.55 -0.12187717 0.59750664 -0.49477601 0.7852844
-0.33899999 9.4309998 -1.55 -0.1295628 0.59850341 -0.47157395 0.77290028
-0.36899999 9.4359999 -1.551 -0.13546668 0.59815055 -0.47795773 0.7775467
-0.39899999 9.4449997 -1.552 -0.14850132 0.59637666 -0.4733355 0.77573466
-0.428 9.4309998 -1.55 -0.14345583 0.59518528 -0.50046116 0.79075056
-0.44400001 9.4390001 -1.552 -0.12715885 0.59700203 -0.50065541 0.78945339
-0.47400001 9.441 -1.552 -0.12949376 0.59739172 -0.49539819 0.78680676
-0.50300002 9.4359999 -1.552 -0.13243942 0.59791046 -0.48552316 0.78151768
-0.53299999 9.4379997 -1.552 -0.127185 0.59758645 -0.48982605 0.78308058
-0.56300002 9.4440002 -1.554 -0.14047909 0.59805411 -0.50161558 0.79310864
-0.59299999 9.4399996 -1.553 -0.15616256 0.59853899 -0.4898552 0.78904617
-0.62199998 9.4420004 -1.554 -0.12647201 0.59424657 -0.49798381 0.78556478
-0.63800001 9.4469995 -1.5549999 -0.13132627 0.59413719 -0.50160307 0.78857547
-0.667 9.441 -1.554 -0.1671655 0.59799325 -0.469313 0.7783283
-0.69599998 9.4350004 -1.554 -0.17511891 0.59741557 -0.47193998 0.78121656
-0.727 9.4390001 -1.5549999 -0.17296213 0.59208679 -0.4832435 0.78358597
-0.75599998 9.4379997 -1.5549999 -0.19972089 0.59192365 -0.46687463 0.77989358
-0.78600001 9.4420004 -1.556 -0.20186311 0.59169161 -0.46680003 0.78022426
-0.81800002 9.4549999 -1.559 -0.23625781 0.58667362 -0.47124729 0.788719
-0.833 9.4619999 -1.5599999 -0.2512123 0.58361006 -0.45748714 0.78294492
-0.86400002 9.4709997 -1.563 -0.23002005 0.58802152 -0.47223154 0.78846759
-7.3239999 8.8470001 -1.913 0.058447182 0.57309687 -0.77299809 0.96404469
-7.3470001 8.8459997 -1.915 0.05970376 0.5769704 -0.7678895 0.96234798
-7.4070001 8.8620005 -1.925 0.071933649 0.56413734 -0.78310442 0.96782124
-7.454 8.8610001 -1.9299999 0.072657935 0.56084412 -0.78697008 0.96909606
-7.4949999 8.8529997 -1.933 0.067944176 0.52788574 -0.82176292 0.97906798
-7.5430002 8.8529997 -1.939 0.070594005 0.55387354 -0.79398692 0.97065681
-7.6040001 8.868 -1.948 0.064689793 0.59119868 -0.74622905 0.95423186
-7.6329999 8.8459997 -1.948 0.061412267 0.56129372 -0.78610194 0.9678731
