# .PCD v0.7 - Point Cloud Data file format
VERSION 0.7
FIELDS x y z normal_x normal_y normal_z curvature
SIZE 4 4 4 4 4 4 4
TYPE F F F F F F F
COUNT 1 1 1 1 1 1 1
WIDTH 253
HEIGHT 1
VIEWPOINT 0 0 0 1 0 0 0
POINTS 253
DATA ascii
-1.416 -4.026 0.35299999 0.49197921 -0.29425672 -0.46376699 0.73736715
-1.406 -4.0380001 0.354 0.49115321 -0.29412395 -0.46384299 0.73681116
-1.3940001 -4.0250001 0.35299999 0.49115321 -0.29412395 -0.46384299 0.73681116
-1.38 -4.026 0.35299999 0.4882479 -0.29699212 -0.4633325 0.73570871
-1.3940001 -3.9349999 0.32300001 0.48741126 -0.29646868 -0.46349439 0.73504454
-1.38 -3.934 0.32300001 0.4882479 -0.29699212 -0.4633325 0.73570871
-1.377 -3.9649999 0.324 0.4882479 -0.29699212 -0.4633325 0.73570871
-1.36 -3.9579999 0.324 0.48411059 -0.29947525 -0.46293038 0.73372543
-1.351 -3.971 0.324 0.48411059 -0.29947525 -0.46293038 0.73372543
-1.418 -4.046 0.30599999 0.49538729 -0.29250136 -0.46395928 0.73906958
-1.4 -4.0370002 0.30599999 0.50018859 -0.27315372 -0.47522596 0.74205208
-1.381 -4.02 0.30500001 0.49936259 -0.27302092 -0.47530195 0.74149537
-1.376 -4.0279999 0.30500001 0.49936259 -0.27302092 -0.47530195 0.74149537
-1.365 -4.0359998 0.30500001 0.49511066 -0.27552551 -0.47493988 0.73933536
-1.393 -3.9760001 0.27200001 0.49392989 -0.28177166 -0.47592008 0.74152678
-1.39 -3.9860001 0.27200001 0.49392989 -0.28177166 -0.47592008 0.74152678
-1.374 -3.9809999 0.27200001 0.49130958 -0.28461501 -0.47536713 0.74051654
-1.368 -4.0040002 0.27200001 0.49301094 -0.28158522 -0.47600651 0.74089962
-1.404 -3.9619999 0.25 0.49392989 -0.28177166 -0.47592008 0.74152678
-1.396 -3.98 0.25 0.49392989 -0.28177166 -0.47592008 0.74152678
-1.377 -3.9649999 0.25 0.49130958 -0.28461501 -0.47536713 0.74051654
-1.397 -3.9389999 0.22 0.48924288 -0.2854259 -0.46786827 0.73466134
-1.388 -3.934 0.22 0.48924288 -0.2854259 -0.46786827 0.73466134
-1.3839999 -3.9630001 0.22 0.491855 -0.286975 -0.46971321 0.73817784
-1.367 -3.954 0.22 0.49031159 -0.28671509 -0.46751755 0.73565185
-1.355 -3.9579999 0.22 0.48923469 -0.28981835 -0.46916029 0.73719507
-1.4170001 -4.0349998 0.2 0.49518478 -0.28529564 -0.46993089 0.73988956
-1.406 -4.0450001 0.2 0.49518478 -0.28529564 -0.46993089 0.73988956
-1.401 -4.072 0.2 0.49518478 -0.28529564 -0.46993089 0.73988956
-1.383 -4.0609999 0.2 0.49518478 -0.28529564 -0.46993089 0.73988956
-1.3710001 -4.0450001 0.2 0.49518478 -0.28529564 -0.46993089 0.73988956
-1.383 -3.934 0.17299999 0.49456131 -0.27068025 -0.47506383 0.73725462
-1.3789999 -3.9820001 0.17299999 0.50046712 -0.26600349 -0.47587213 0.74005371
-1.364 -3.9790001 0.17299999 0.50158012 -0.26744673 -0.47548372 0.74107701
-1.35 -3.9790001 0.17299999 0.49825034 -0.26912609 -0.47526604 0.73929697
-1.402 -4.0120001 0.146 0.50046712 -0.26600349 -0.47587213 0.74005371
-1.395 -4.0339999 0.146 0.50046712 -0.26600349 -0.47587213 0.74005371
-1.3609999 -3.9749999 0.147 0.50046712 -0.26600349 -0.47587213 0.74005371
-1.359 -4.0100002 0.146 0.50158012 -0.26744673 -0.47548372 0.74107701
-1.337 -3.9860001 0.147 0.49825034 -0.26912609 -0.47526604 0.73929697
-1.392 -3.9790001 0.117 0.50416875 -0.25453365 -0.4809922 0.7418403
-1.382 -3.99 0.117 0.50416875 -0.25453365 -0.4809922 0.7418403
-1.365 -3.9820001 0.117 0.50416875 -0.25453365 -0.4809922 0.7418403
-1.3660001 -4.006 0.116 0.50416875 -0.25453365 -0.4809922 0.7418403
-1.393 -4.006 0.093999997 0.50416875 -0.25453365 -0.4809922 0.7418403
-1.3789999 -4.006 0.093999997 0.50416875 -0.25453365 -0.4809922 0.7418403
-1.376 -4.039 0.093000002 0.50416875 -0.25453365 -0.4809922 0.7418403
-1.403 -3.9909999 0.068999998 0.50638729 -0.24676847 -0.47762656 0.73854584
-1.38 -3.967 0.07 0.50416875 -0.25453365 -0.4809922 0.7418403
-1.374 -3.99 0.068999998 0.50638729 -0.24676847 -0.47762656 0.73854584
-1.364 -4.0019999 0.068999998 0.50123221 -0.24722677 -0.47776508 0.73526472
-1.421 -4.0510001 0.037999999 0.50710487 -0.24440444 -0.48088083 0.74036157
-1.399 -4.0300002 0.039000001 0.50710487 -0.24440444 -0.48088083 0.74036157
-1.391 -4.0250001 0.039999999 0.50194973 -0.24486274 -0.48101935 0.73708272
-1.387 -4.0560002 0.039000001 0.50194973 -0.24486274 -0.48101935 0.73708272
-1.392 -3.973 0.016000001 0.49659801 -0.27732855 -0.47570348 0.74149477
-1.38 -3.9790001 0.016000001 0.49144289 -0.27778688 -0.475842 0.73831379
-1.37 -3.9890001 0.016000001 0.49144289 -0.27778688 -0.475842 0.73831379
-1.358 -3.9960001 0.016000001 0.49144289 -0.27778688 -0.475842 0.73831379
-1.402 -4.0029998 -0.0099999998 0.46986407 -0.32930595 -0.47611454 0.74558681
-1.382 -3.9849999 -0.0089999996 0.46986407 -0.32930595 -0.47611454 0.74558681
-1.373 -4.0009999 -0.0089999996 0.46986407 -0.32930595 -0.47611454 0.74558681
-1.3609999 -3.984 -0.0080000004 0.49144289 -0.27778688 -0.475842 0.73831379
-1.347 -3.984 -0.0080000004 0.49144289 -0.27778688 -0.475842 0.73831379
-1.401 -3.9979999 -0.037 0.45516402 -0.35720313 -0.47508186 0.7486462
-1.391 -3.9890001 -0.035999998 0.45516402 -0.35720313 -0.47508186 0.7486462
-1.378 -3.994 -0.035999998 0.45516402 -0.35720313 -0.47508186 0.7486462
-1.3660001 -3.9979999 -0.035999998 0.45516402 -0.35720313 -0.47508186 0.7486462
-1.358 -4.0170002 -0.037 0.45516402 -0.35720313 -0.47508186 0.7486462
-1.406 -4.0339999 -0.061999999 0.48102197 -0.30480403 -0.47827119 0.74366051
-1.401 -4.04 -0.061999999 0.48102197 -0.30480403 -0.47827119 0.74366051
-1.391 -4.052 -0.061999999 0.47948506 -0.30850089 -0.48054025 0.7456525
-1.37 -4.0339999 -0.061000001 0.4553107 -0.35695663 -0.47533754 0.74878007
-1.405 -3.97 -0.088 0.44913062 -0.36765379 -0.47742924 0.75154924
-1.3940001 -3.9779999 -0.088 0.44913062 -0.36765379 -0.47742924 0.75154924
-1.383 -3.9860001 -0.088 0.44913062 -0.36765379 -0.47742924 0.75154924
-1.3789999 -4.0149999 -0.090000004 0.47984585 -0.30763996 -0.47993308 0.74513769
-1.365 -4.0170002 -0.090000004 0.47984585 -0.30763996 -0.47993308 0.74513769
-1.42 -4.0539999 -0.115 0.47908148 -0.30938229 -0.47911492 0.74484062
-1.402 -4.0430002 -0.114 0.47908148 -0.30938229 -0.47911492 0.74484062
-1.392 -4.0549998 -0.114 0.47609198 -0.30728579 -0.47970194 0.74242985
-1.3789999 -4.059 -0.114 0.47609198 -0.30728579 -0.47970194 0.74242985
-1.374 -4.0630002 -0.114 0.47609198 -0.30728579 -0.47970194 0.74242985
-1.408 -4.013 -0.14 0.4795627 -0.30836493 -0.48202899 0.74660653
-1.408 -4.053 -0.14300001 0.47687125 -0.30557686 -0.48270243 0.74416733
-1.396 -4.04 -0.142 0.4765732 -0.30626845 -0.48261601 0.74420464
-1.382 -4.0409999 -0.141 0.4765732 -0.30626845 -0.48261601 0.74420464
-1.37 -4.0450001 -0.141 0.47307476 -0.30792403 -0.4823564 0.7424854
-1.4220001 -4.0749998 -0.17 0.47083101 -0.31902575 -0.47995877 0.74419063
-1.39 -4.0229998 -0.16500001 0.47434652 -0.31132388 -0.48125502 0.74399841
-1.376 -4.0209999 -0.164 0.47084808 -0.31297946 -0.48099542 0.74230093
-1.3609999 -4.0180001 -0.164 0.47084808 -0.31297946 -0.48099542 0.74230093
-1.347 -4.02 -0.163 0.47263628 -0.30879828 -0.47841358 0.7400142
-1.393 -3.984 -0.18700001 0.47992221 -0.30755055 -0.48299217 0.7471239
-1.383 -3.9960001 -0.18799999 0.4761225 -0.30923289 -0.48275068 0.74522871
-1.372 -4.006 -0.18799999 0.47343427 -0.30710965 -0.48331958 0.74300349
-1.367 -4.0100002 -0.189 0.47343427 -0.30710965 -0.48331958 0.74300349
-1.397 -3.987 -0.215 0.47412425 -0.31384614 -0.48339638 0.74630105
-1.38 -3.98 -0.213 0.47441986 -0.31310597 -0.48063758 0.74439371
-1.365 -3.977 -0.213 0.47173163 -0.31098273 -0.48120648 0.74215949
-1.397 -3.9860001 -0.241 0.47412425 -0.31384614 -0.48339638 0.74630105
-1.386 -3.9949999 -0.241 0.47143602 -0.3117229 -0.48396528 0.74407357
-1.3710001 -3.9909999 -0.23999999 0.47143602 -0.3117229 -0.48396528 0.74407357
-1.363 -4.0110002 -0.242 0.47143602 -0.3117229 -0.48396528 0.74407357
-1.414 -4.0749998 -0.27900001 0.47115171 -0.31219438 -0.47842225 0.74049789
-1.401 -4.0560002 -0.27599999 0.47115171 -0.31219438 -0.47842225 0.74049789
-1.376 -4.0250001 -0.27200001 0.47143397 -0.311526 -0.47782099 0.7400077
-1.38 -4.0799999 -0.278 0.47115171 -0.31219438 -0.47842225 0.74049789
-1.391 -3.9790001 -0.294 0.47115225 -0.31219995 -0.4785738 0.7405985
-1.3890001 -4.0139999 -0.29800001 0.47115225 -0.31219995 -0.4785738 0.7405985
-1.37 -3.9990001 -0.29499999 0.47115225 -0.31219995 -0.4785738 0.7405985
-1.368 -4.0349998 -0.29899999 0.47115225 -0.31219995 -0.4785738 0.7405985
-1.41 -4.04 -0.32600001 0.47239065 -0.31319869 -0.47934887 0.74230838
-1.404 -4.0630002 -0.329 0.47080258 -0.31302601 -0.47943565 0.74128193
-1.399 -4.0689998 -0.329 0.47080258 -0.31302601 -0.47943565 0.74128193
-1.382 -4.0619998 -0.32800001 0.47080258 -0.31302601 -0.47943565 0.74128193
-1.36 -4.0380001 -0.324 0.47080258 -0.31302601 -0.47943565 0.74128193
-1.403 -4.006 -0.34400001 0.4711394 -0.31316003 -0.4793956 0.7415266
-1.398 -4.0100002 -0.34400001 0.4711394 -0.31316003 -0.4793956 0.7415266
-1.378 -3.9960001 -0.34200001 0.47080258 -0.31302601 -0.47943565 0.74128193
-1.37 -4.0139999 -0.34299999 0.47080258 -0.31302601 -0.47943565 0.74128193
-1.362 -4.0310001 -0.345 0.47080258 -0.31302601 -0.47943565 0.74128193
-1.337 -4 -0.34 0.47080258 -0.31302601 -0.47943565 0.74128193
-1.439 -4.1009998 -0.38699999 0.47334605 -0.31102744 -0.47923732 0.74193192
-1.423 -4.0960002 -0.38600001 0.47334605 -0.31102744 -0.47923732 0.74193192
-1.387 -4.0120001 -0.37400001 0.47029668 -0.31515285 -0.48273996 0.74400145
-1.447 -4.2340002 -0.405 0.4686591 -0.32149246 -0.48203361 0.74522156
-1.378 -4.0710001 -0.38100001 0.47041532 -0.31396896 -0.48154551 0.74280089
-1.442 -4.085 -0.41499999 0.47499368 -0.30702463 -0.47536185 0.73881799
-1.426 -4.0799999 -0.414 0.47529989 -0.30625194 -0.47449413 0.73813611
-1.41 -4.0749998 -0.412 0.47529989 -0.30625194 -0.47449413 0.73813611
-1.393 -4.0679998 -0.41 0.47529989 -0.30625194 -0.47449413 0.73813611
-1.3789999 -4.0689998 -0.41 0.47371182 -0.30607927 -0.47458091 0.73709869
-1.336 -3.983 -0.396 0.47041532 -0.31396896 -0.48154551 0.74280089
-1.411 -4.0320001 -0.426 0.47499368 -0.30702463 -0.47536185 0.73881799
-1.3890001 -4.0089998 -0.42199999 0.47529989 -0.30625194 -0.47449413 0.73813611
-1.36 -3.9619999 -0.414 0.47371182 -0.30607927 -0.47458091 0.73709869
-1.347 -3.9660001 -0.414 0.47371182 -0.30607927 -0.47458091 0.73709869
-1.3609999 -4.0289998 -0.42300001 0.47371182 -0.30607927 -0.47458091 0.73709869
-1.353 -4.0479999 -0.42500001 0.4734056 -0.30685195 -0.47544864 0.73778206
-1.425 -4.0619998 -0.46200001 0.47599074 -0.3044337 -0.47192475 0.73617935
-1.397 -4.0240002 -0.45500001 0.47599074 -0.3044337 -0.47192475 0.73617935
-1.3839999 -4.0079999 -0.45199999 0.47599074 -0.3044337 -0.47192475 0.73617935
-1.3710001 -4.0120001 -0.45199999 0.47473949 -0.30439505 -0.47197148 0.73538494
-1.375 -4.0630002 -0.45899999 0.47599074 -0.3044337 -0.47192475 0.73617935
-1.3609999 -4.0630002 -0.45899999 0.47440267 -0.30426103 -0.47201154 0.73513776
-1.415 -4.0279999 -0.55199999 0.47792619 -0.29917774 -0.46584272 0.73138922
-1.418 -4.079 -0.56 0.47834951 -0.29900748 -0.46142662 0.72879231
-1.359 -3.947 -0.537 0.47167432 -0.29849911 -0.46762127 0.7281813
-1.318 -3.8629999 -0.523 0.45932084 -0.31199741 -0.47455186 0.73042279
-1.3049999 -3.8670001 -0.523 0.46348932 -0.31655133 -0.47357419 0.73437023
-1.321 -3.9579999 -0.537 0.47300392 -0.30370766 -0.46642432 0.73042637
-1.3380001 -4.0310001 -0.54900002 0.47088724 -0.30010208 -0.4658044 0.72716558
-1.4069999 -4.0009999 -0.58999997 0.4780007 -0.29966277 -0.46001938 0.72794247
-1.38 -3.9649999 -0.583 0.47244778 -0.29579234 -0.46103096 0.72335994
-1.362 -3.954 -0.57999998 0.47244778 -0.29579234 -0.46103096 0.72335994
-1.347 -3.951 -0.579 0.47244778 -0.29579234 -0.46103096 0.72335994
-1.337 -3.961 -0.57999998 0.4741455 -0.30116218 -0.45978794 0.72589087
-1.345 -4.006 -0.58700001 0.47177219 -0.30055636 -0.45998004 0.72421318
-1.345 -4.0469999 -0.59399998 0.47177219 -0.30055636 -0.45998004 0.72421318
-1.402 -4.0289998 -0.63200003 0.4781858 -0.29980406 -0.46449107 0.7309556
-1.41 -4.0929999 -0.64300001 0.47433147 -0.29934546 -0.4647058 0.72838831
-1.352 -3.9630001 -0.61799997 0.47260693 -0.2959851 -0.46540332 0.72633654
-1.3380001 -3.9630001 -0.61699998 0.47193134 -0.30074912 -0.4643524 0.72718114
-1.336 -3.9979999 -0.62300003 0.4719573 -0.30069765 -0.46445173 0.72724009
-1.349 -4.0799999 -0.63800001 0.4719573 -0.30069765 -0.46445173 0.72724009
-1.369 -3.984 -0.65399998 0.47263288 -0.29593363 -0.46550265 0.72639608
-1.3559999 -3.9879999 -0.65399998 0.4719573 -0.30069765 -0.46445173 0.72724009
-1.344 -3.9920001 -0.65399998 0.4719573 -0.30069765 -0.46445173 0.72724009
-1.334 -4.006 -0.65600002 0.4719573 -0.30069765 -0.46445173 0.72724009
-1.408 -4.04 -0.704 0.47822729 -0.29712868 -0.47149733 0.73436809
-1.3890001 -4.0279999 -0.69999999 0.47469708 -0.29646403 -0.47173804 0.7319597
-1.376 -4.0300002 -0.69999999 0.47404432 -0.29628289 -0.47179297 0.73149854
-1.373 -4.0440001 -0.70200002 0.47404432 -0.29628289 -0.47179297 0.73149854
-1.403 -4.02 -0.75 0.46534279 -0.30680975 -0.47158882 0.73011786
-1.391 -4.027 -0.75099999 0.46534279 -0.30680975 -0.47158882 0.73011786
-1.38 -4.0139999 -0.74699998 0.46534279 -0.30680975 -0.47158882 0.73011786
-1.369 -4.0240002 -0.74800003 0.46735346 -0.31215999 -0.4703604 0.73287249
-1.399 -4.079 -0.80199999 0.47536805 -0.29464042 -0.47028285 0.73072135
-1.382 -4.0710001 -0.79900002 0.47536805 -0.29464042 -0.47028285 0.73072135
-1.372 -4.0840001 -0.801 0.47536805 -0.29464042 -0.47028285 0.73072135
-1.365 -4.105 -0.80500001 0.47536805 -0.29464042 -0.47028285 0.73072135
-1.345 -4.066 -0.796 0.47467491 -0.29456437 -0.47036403 0.73029226
-1.404 -4.053 -0.833 0.48046598 -0.26852503 -0.477512 0.72867751
-1.402 -4.0869999 -0.83899999 0.48493466 -0.26883301 -0.47823787 0.73221874
-1.396 -4.0910001 -0.83999997 0.48456407 -0.26998466 -0.4789204 0.73284292
-1.383 -4.0929999 -0.83899999 0.48456407 -0.26998466 -0.4789204 0.73284292
-1.375 -4.112 -0.84299999 0.48743907 -0.26111224 -0.47911289 0.73165953
-1.3890001 -4.0630002 -0.87199998 0.48477563 -0.25558087 -0.48039624 0.72877264
-1.37 -4.0500002 -0.86699998 0.48190063 -0.26445326 -0.48020375 0.7299037
-1.3559999 -4.0489998 -0.866 0.48190063 -0.26445326 -0.48020375 0.7299037
-1.344 -4.0549998 -0.86699998 0.48391131 -0.26980349 -0.47897533 0.73238063
-1.3380001 -4.0819998 -0.87199998 0.48678631 -0.26093107 -0.47916782 0.73119611
-1.392 -4.0650001 -0.90799999 0.48477563 -0.25558087 -0.48039624 0.72877264
-1.387 -4.0910001 -0.91299999 0.48715854 -0.24773583 -0.48009783 0.72745478
-1.372 -4.0900002 -0.912 0.48982197 -0.25326723 -0.47881448 0.73029661
-1.3609999 -4.0770001 -0.90799999 0.48743907 -0.26111224 -0.47911289 0.73165953
-1.355 -4.1020002 -0.91299999 0.48982197 -0.25326723 -0.47881448 0.73029661
-1.42 -4.0710001 -0.95700002 0.49723533 -0.19604251 -0.48268616 0.72018164
-1.406 -4.0739999 -0.95599997 0.49723533 -0.19604251 -0.48268616 0.72018164
-1.38 -4.0380001 -0.94499999 0.48357251 -0.24370794 -0.48093072 0.72424465
-1.375 -4.066 -0.95200002 0.48737475 -0.24674979 -0.47661617 0.72497076
-1.3940001 -4.04 -0.991 0.49173427 -0.21253154 -0.48124185 0.72011524
-1.387 -4.0380001 -0.99000001 0.49173427 -0.21253154 -0.48124185 0.72011524
-1.381 -4.0630002 -0.99599999 0.49448481 -0.19960943 -0.48069942 0.71793532
-1.357 -4.0339999 -0.98699999 0.49177155 -0.21236831 -0.48125285 0.72009987
-1.401 -4.0580001 -1.044 0.5000239 -0.18053794 -0.48690793 0.72090024
-1.385 -4.0510001 -1.041 0.49789155 -0.18111598 -0.48681143 0.71950287
-1.37 -4.0500002 -1.039 0.49789155 -0.18111598 -0.48681143 0.71950287
-1.357 -4.0539999 -1.039 0.49785474 -0.18134375 -0.48679364 0.71952271
-1.347 -4.066 -1.041 0.49785474 -0.18134375 -0.48679364 0.71952271
-1.374 -3.977 -1.058 0.50017482 -0.16513409 -0.48384017 0.71522403
-1.368 -3.9979999 -1.063 0.50017482 -0.16513409 -0.48384017 0.71522403
-1.358 -4.0100002 -1.0650001 0.50015301 -0.16530338 -0.48383287 0.71524292
-1.348 -4.0029998 -1.063 0.50015301 -0.16530338 -0.48383287 0.71524292
-1.34 -4.02 -1.066 0.50015301 -0.16530338 -0.48383287 0.71524292
-1.3839999 -4.04 -1.118 0.50468904 -0.14223355 -0.48999518 0.71766055
-1.365 -4.026 -1.112 0.50255668 -0.1428116 -0.48989868 0.71621162
-1.349 -4.0209999 -1.11 0.50207394 -0.14822929 -0.48714781 0.71509659
-1.334 -4.0180001 -1.107 0.50207394 -0.14822929 -0.48714781 0.71509659
-1.325 -4.033 -1.1109999 0.50207394 -0.14822929 -0.48714781 0.71509659
-1.362 -4.0089998 -1.138 0.50254375 -0.1429681 -0.48989046 0.71622819
-1.349 -4.0139999 -1.138 0.50254375 -0.1429681 -0.48989046 0.71622819
-1.3430001 -4.0159998 -1.138 0.50254375 -0.1429681 -0.48989046 0.71622819
-1.327 -4.0110002 -1.135 0.50649351 -0.13589554 -0.49125582 0.71856493
-1.424 -4.1059999 -1.224 0.47384888 -0.27800405 -0.48283792 0.73140377
-1.4 -4.0780001 -1.2130001 0.47716337 -0.26942614 -0.48444718 0.73141259
-1.38 -4.0599999 -1.206 0.47716337 -0.26942614 -0.48444718 0.73141259
-1.373 -4.0830002 -1.212 0.47716337 -0.26942614 -0.48444718 0.73141259
-1.362 -4.0700002 -1.207 0.4750315 -0.2700029 -0.48435122 0.73017299
-1.4069999 -4.0749998 -1.2589999 0.49219969 -0.2173028 -0.50853032 0.74032706
-1.398 -4.0700002 -1.256 0.50307083 -0.15104663 -0.51607049 0.7363587
-1.381 -4.0619998 -1.252 0.48503989 -0.24530947 -0.49897194 0.73784381
-1.376 -4.0879998 -1.2589999 0.47999427 -0.26131317 -0.48524687 0.73085123
-1.364 -4.0939999 -1.26 0.46753091 -0.29371458 -0.47428113 0.72787088
-1.386 -4.0560002 -1.3 0.5048058 -0.16539019 -0.49861518 0.72856015
-1.369 -4.046 -1.295 0.50990885 -0.10929795 -0.49153456 0.71663052
-1.354 -4.0430002 -1.2920001 0.49968499 -0.1860408 -0.48189834 0.71869487
-1.347 -4.066 -1.299 0.47547394 -0.27039695 -0.46356887 0.71699798
-1.377 -4.1799998 -1.3380001 0.48505503 -0.23433834 -0.43380436 0.69164956
-1.423 -4.1409998 -1.3710001 0.49156919 -0.22097436 -0.49969962 0.73496234
-1.382 -4.0450001 -1.335 0.50918812 -0.12249696 -0.49066699 0.71765739
-1.373 -4.0619998 -1.34 0.48687521 -0.24313204 -0.4691329 0.71850282
-1.3559999 -4.053 -1.335 0.48244578 -0.25015211 -0.46103832 0.71266145
-1.351 -4.079 -1.3430001 0.4827714 -0.24642743 -0.44933435 0.70405686
-1.37 -4.0619998 -1.3839999 0.43154916 -0.36185604 -0.46541908 0.73060894
-1.354 -4.0570002 -1.38 0.49656305 -0.18597867 -0.43476635 0.68570018
-1.342 -4.0650001 -1.382 0.48906228 -0.20728731 -0.41298011 0.67283171
-1.337 -4.0710001 -1.383 0.50085866 -0.12316927 -0.41044605 0.65916312
-1.3839999 -4.105 -1.4349999 0.49841812 -0.19666201 -0.52327329 0.74894023
-1.369 -4.1040001 -1.433 0.45520547 -0.25672829 -0.33151972 0.6188916
-1.355 -4.1040001 -1.432 0.41499066 -0.25750959 -0.24736048 0.54746294
-1.355 -4.1479998 -1.447 0.17861524 -0.21214707 -0.035298407 0.27956352
