# .PCD v0.7 - Point Cloud Data file format
VERSION 0.7
FIELDS x y z normal_x normal_y normal_z curvature
SIZE 4 4 4 4 4 4 4
TYPE F F F F F F F
COUNT 1 1 1 1 1 1 1
WIDTH 131
HEIGHT 1
VIEWPOINT 0 0 0 1 0 0 0
POINTS 131
DATA ascii
-42.549 -4.9590001 0.85900003 -0.32982805 0.25514686 -0.53852612 0.68109971
-41.945 -5.0229998 0.85000002 0.024176806 0.025630549 -0.59326661 0.59431195
-41.915001 -5.1529999 0.85000002 0.03842929 0.019196659 -0.57295746 0.57456553
-41.884998 -5.283 0.85000002 0.056118369 0.016173497 -0.54552531 0.54864264
-41.845001 -5.3439999 0.84899998 0.072278678 0.0099069327 -0.49665323 0.50198287
-41.818001 -5.4749999 0.84899998 0.072447509 0.039953664 -0.46885803 0.47610167
-41.791 -5.605 0.84899998 0.06448254 0.06584771 -0.44482505 0.45427224
-41.724998 -5.7290001 0.84799999 0.073836565 0.061093763 -0.41823459 0.42907396
-41.688999 -5.8579998 0.84799999 0.056777507 0.096397467 -0.43137443 0.44564566
-41.651001 -5.9860001 0.84799999 0.061224788 0.082109511 -0.42273033 0.43496135
-41.605999 -6.1129999 0.847 0.049683809 0.10635508 -0.42904663 0.44481558
-41.492001 -6.1630001 0.84600002 0.064329952 0.1111248 -0.44922078 0.46721128
-41.583 -6.3099999 0.84799999 0.04861933 0.10156878 -0.43214214 0.44657239
-42.465 -4.941 0.639 -0.20578408 0.26677185 -0.2478236 0.41824734
-42.749001 -5.0419998 0.64200002 -0.21929148 0.28636557 -0.35240233 0.50426322
-42.133999 -5.1040001 0.63599998 -0.051941127 0.17255421 -0.53869736 0.56803846
-41.999001 -5.2210002 0.63499999 0.038390338 0.018995002 -0.57314992 0.57474816
-41.956001 -5.3499999 0.63499999 0.078513324 0.0055384785 -0.56473601 0.57019454
-41.901001 -5.4770002 0.634 0.085611671 0.0062240213 -0.55090529 0.55755246
-41.834999 -5.6009998 0.634 0.073266983 0.0328857 -0.53899682 0.54494685
-41.794998 -5.73 0.63300002 0.090771794 0.060462087 -0.43821672 0.45158508
-41.736 -5.789 0.63300002 0.082876742 0.072906688 -0.43976334 0.45340461
-41.723999 -5.921 0.63300002 0.074957192 0.086831652 -0.45100933 0.46536839
-41.673 -6.0469999 0.63300002 0.082112342 0.070758902 -0.44628435 0.45925915
-41.633999 -6.1750002 0.63300002 0.073233724 0.082182184 -0.44012961 0.45368621
-42.949001 -4.2290001 0.34299999 0.21973372 -0.51916802 -0.3976388 0.68988037
-42.992001 -4.302 0.34299999 0.26256114 -0.36276674 -0.43061405 0.62126201
-43.014999 -4.441 0.34299999 0.19411564 -0.51391113 -0.3444424 0.64840275
-42.541 -4.527 0.34200001 -0.03923665 0.060639977 -0.65876257 0.66271025
-42.514999 -4.6589999 0.34200001 -0.034701496 -0.05047518 -0.73349249 0.73604566
-42.333 -4.7740002 0.34099999 0.17309245 -0.07361196 -0.37569728 0.42015254
-42.262001 -5.0349998 0.34099999 0.12468228 -0.16563198 -0.53527528 0.57402027
-42.362999 -5.1149998 0.34099999 0.14175099 -0.18087092 -0.54274642 0.58939064
-42.557999 -5.2740002 0.34200001 -0.10699128 -0.38170367 0.087271988 0.4059079
-42.882 -5.4510002 0.34299999 -0.018657744 -0.2806989 0.046485543 0.28513312
-42.051998 -5.6139998 0.34099999 -0.025479674 0.16532178 -0.57606196 0.59985656
-42.769001 -5.9829998 0.34299999 -0.29241443 -0.091142118 0.16651306 0.34862542
-42.583 -6.026 0.34200001 -0.27524009 0.031424724 0.1616559 0.32074484
-42.380001 -6.1329999 0.34200001 0.074483633 -0.23380634 -0.17513625 0.30147293
-42.625 -6.4419999 0.34299999 -0.63450265 0.048701812 0.12509656 0.64854807
-42.617001 -6.5780001 0.34299999 -0.59700471 -0.24047936 0.12049985 0.65480161
-42.994999 -4.3709998 0.14 0.057444319 0.12320128 -0.37629098 0.40009162
-43.117001 -4.4520001 0.139 0.24060695 -0.2769053 -0.50354695 0.62299901
-43.006001 -4.5770001 0.139 0.056035042 0.13597733 -0.31394887 0.34668955
-42.735001 -4.684 0.14 0.018836021 0.15291664 -0.24551708 0.28985673
-42.474998 -4.79 0.14 0.16564441 -0.020395815 -0.34061953 0.37930954
-42.466 -4.9239998 0.14 0.14533243 0.0023310035 -0.31946585 0.35097775
-42.473999 -5.0599999 0.14 0.15879151 -0.36782321 -0.28720263 0.49294424
-42.370998 -5.1830001 0.14 0.15640923 -0.27682403 -0.13407552 0.34506759
-42.712002 -5.2930002 0.14 -0.041552991 -0.27673426 0.08139047 0.2914325
-42.551998 -5.4089999 0.14 0.011498928 -0.31099567 0.022114545 0.31199291
-42.034 -5.7459998 0.141 -0.69228339 0.22652467 -0.26421112 0.77484018
-42.372002 -5.928 0.14 -0.72771931 0.25232214 -0.22188875 0.80154634
-42.530998 -6.1550002 0.14 0.042386413 -0.34511563 -0.34493911 0.48977995
-42.908001 -6.3470001 0.139 -0.41258726 0.3678019 -0.094596341 0.56076282
-42.951 -6.4920001 0.139 -0.30184472 -0.10794685 0.17947859 0.36738986
-42.956001 -6.631 0.139 -0.30825099 -0.076857604 0.18330735 0.36677971
-42.791 -6.743 0.139 -0.5139035 -0.12058979 0.16986957 0.55452174
-43.172001 -4.2350001 -0.13600001 -0.59654254 0.011592537 -0.26293886 0.6520232
-43.116001 -4.3660002 -0.13600001 0.052940965 0.12733787 -0.29576632 0.32633632
-42.779999 -4.4679999 -0.133 -0.014907464 0.15517479 -0.45813212 0.48392817
-42.777 -4.5359998 -0.133 -0.030983999 0.17012224 -0.45822641 0.48976833
-42.515999 -4.6430001 -0.131 0.10698089 0.094855338 -0.37507775 0.40140474
-42.383999 -4.7639999 -0.13 0.21890405 -0.12983829 -0.35223502 0.43456468
-42.473999 -4.9089999 -0.131 0.21397573 -0.11072493 -0.32816532 0.40710944
-42.370998 -5.0320001 -0.13 0.17419064 -0.031438917 -0.31207651 0.35877922
-42.325001 -5.1620002 -0.13 0.14628348 0.027258992 -0.30518019 0.33952445
-42.203999 -5.2820001 -0.12899999 0.14043477 0.022076264 -0.29539958 0.32782647
-42.303001 -5.3610001 -0.13 0.16353023 -0.062231198 -0.20207113 0.26729685
-42.174 -5.48 -0.12899999 0.18821505 -0.21876073 -0.26944289 0.3948172
-42.115002 -5.6069999 -0.12899999 0.11234283 0.065071136 -0.26254061 0.29288691
-42.398998 -5.7800002 -0.131 0.087923944 -0.41368049 -0.18513072 0.46166608
-42.473999 -5.9260001 -0.132 0.14632219 -0.21146283 -0.21595573 0.33580288
-42.506001 -6.0669999 -0.133 0.039981902 -0.41007704 -0.29029953 0.50401938
-42.728001 -6.2350001 -0.13500001 -0.62626851 0.32109427 -0.36033109 0.79066575
-42.949001 -4.165 -0.39899999 0.25891 -0.32325426 -0.22183296 0.46982718
-43.124001 -4.3189998 -0.40200001 0.25012106 -0.39760786 -0.20095193 0.5109151
-43.189999 -4.4619999 -0.403 0.2102343 -0.29251328 -0.090043604 0.37130892
-43.070999 -4.5869999 -0.40200001 0.088954464 0.06299001 -0.51471925 0.5261336
-42.926998 -4.7080002 -0.40000001 -0.018945366 0.040528357 -0.66854882 0.67004406
-42.748001 -4.756 -0.39700001 0.013593376 0.16395417 -0.39338946 0.42640474
-42.474998 -4.8610001 -0.39399999 0.14457667 0.043802038 -0.36015293 0.39055237
-42.444 -4.9920001 -0.39399999 0.15175891 0.033029079 -0.34750196 0.38063014
-42.372002 -5.119 -0.39300001 0.17387894 -0.0085603744 -0.32867563 0.37193391
-42.247002 -5.2379999 -0.391 0.17990002 -0.044876561 -0.37150195 0.41520071
-42.143002 -5.494 -0.38999999 0.15032855 -0.19563906 -0.13787828 0.28263709
-42.308998 -5.5840001 -0.39300001 0.1535292 -0.28351456 -0.21964568 0.39012298
-41.926998 -5.6669998 -0.38800001 -0.22077276 0.28695619 -0.17145973 0.40060318
-42.297001 -5.8530002 -0.39300001 0.12391543 -0.38146472 -0.247924 0.47152591
-42.403 -6.0029998 -0.39500001 0.11354962 -0.38573956 -0.25281659 0.47497869
-42.483002 -6.151 -0.396 0.018513501 -0.47908002 -0.28991544 0.56027794
-42.798 -6.3340001 -0.40099999 -0.60764599 0.31166083 -0.42294136 0.80327177
-43.196999 -3.9630001 -0.704 0.14090228 0.0012653172 -0.41406742 0.43738642
-43.129002 -4.0250001 -0.70300001 0.14653467 0.0052208006 -0.40679428 0.43241328
-43.029999 -4.152 -0.70099998 0.1703442 -0.0080118775 -0.28915033 0.3356922
-42.917999 -4.2779999 -0.699 0.15289211 0.0087874234 -0.30588239 0.34207785
-42.823002 -4.4039998 -0.69800001 0.14900264 0.019875109 -0.43866354 0.46370521
-42.721001 -4.5300002 -0.69599998 0.15543891 0.028296679 -0.28163883 0.32292783
-42.617001 -4.6539998 -0.69400001 0.11514623 0.079832464 -0.2845735 0.31719702
-42.521 -4.7789998 -0.69199997 0.12597048 0.063827932 -0.28096727 0.31446013
-42.417999 -4.835 -0.69 0.15124366 0.034127831 -0.31548008 0.35152104
-42.342999 -4.961 -0.68900001 0.20983368 -0.11104976 -0.36523658 0.4356145
-42.339001 -5.0949998 -0.68900001 0.20723358 -0.11656682 -0.41064271 0.47451136
-42.320999 -5.2280002 -0.68900001 0.20774487 -0.10929651 -0.40535137 0.46841583
-41.984001 -5.4549999 -0.68300003 -0.24208145 0.29502237 -0.3178494 0.49665868
-41.679001 -5.5489998 -0.67699999 -0.20299606 0.21859567 -0.06060937 0.30440921
-42.259998 -5.8280001 -0.68900001 0.091279298 -0.45962656 -0.37454233 0.59989202
-42.416 -5.9860001 -0.69300002 -0.68853205 0.14847659 -0.20224389 0.73281938
-43.015999 -4.237 -0.92199999 0.12664251 -0.0056757033 -0.49371263 0.50972807
-42.915001 -4.3629999 -0.92000002 0.12005629 0.0012900829 -0.49095768 0.50542521
-42.828999 -4.4899998 -0.91799998 0.11069699 -0.010211855 -0.57220185 0.58290058
-42.723 -4.6149998 -0.91600001 0.11632644 0.011320442 -0.55107367 0.56333131
-42.626999 -4.6719999 -0.91399997 0.085011259 0.061247915 -0.52238709 0.53279126
-42.505001 -4.7940001 -0.91100001 0.12125741 0.052820385 -0.45675269 0.47551695
-42.397999 -4.9159999 -0.90799999 0.1890595 -0.089330763 -0.4523409 0.49833298
-42.337002 -5.0440001 -0.90700001 0.19918478 -0.13934481 -0.45415819 0.51512253
-42.553001 -5.2059999 -0.91299999 0.18554279 -0.2627472 -0.54164308 0.62995195
-42.366001 -5.3179998 -0.90899998 0.18486434 -0.11127648 -0.49281478 0.53798115
-42.261002 -5.507 -0.90700001 -0.59691167 -0.15955132 0.051763922 0.62003201
-42.013 -5.6090002 -0.90100002 -0.59745419 0.087860584 -0.043088019 0.60541517
-42.485001 -5.8080001 -0.91399997 -0.6042701 0.04685089 -0.030328393 0.60684198
-42.998001 -4.494 -1.179 0.22474086 -0.15719928 -0.47664452 0.54991823
-43.050999 -4.6360002 -1.182 0.24735174 -0.35018173 -0.42265642 0.60203701
-42.828999 -4.8169999 -1.175 -0.041851804 0.18593198 -0.39678144 0.44017926
-42.486 -4.9130001 -1.165 0.15754446 0.012646794 -0.3243053 0.3607688
-42.464001 -5.046 -1.164 0.22709346 -0.19850132 -0.3348926 0.45069641
-42.652 -5.204 -1.171 0.23054594 -0.29015261 -0.22906555 0.43567303
-43.556999 -4.0310001 -1.482 -0.2289875 -0.34231424 0.19921944 0.45749614
-43.345001 -4.1479998 -1.475 -0.2333346 -0.33991191 0.19363287 0.45549846
-43.313 -4.2140002 -1.474 -0.23946716 -0.33524212 0.19287109 0.45489675
-43.109001 -4.3309999 -1.466 0.093811542 0.054564089 -0.25773108 0.27964827
