# .PCD v0.7 - Point Cloud Data file format
VERSION 0.7
FIELDS x y z normal_x normal_y normal_z curvature
SIZE 4 4 4 4 4 4 4
TYPE F F F F F F F
COUNT 1 1 1 1 1 1 1
WIDTH 75
HEIGHT 1
VIEWPOINT 0 0 0 1 0 0 0
POINTS 75
DATA ascii
-1.599 11.781 0.479 -0.049144626 -0.24820396 -0.06298551 0.26074427
-1.6390001 11.794 0.479 -0.050802585 -0.27757257 -0.081173033 0.29362646
-1.675 11.782 0.479 -0.04536581 -0.29207093 -0.091187418 0.30931962
-1.712 11.777 0.479 -0.045085575 -0.3080669 -0.10028651 0.32710138
-1.848 11.803 0.47999999 -0.015392698 -0.2462766 -0.062044382 0.25443783
-1.8839999 11.787 0.47999999 -0.016725432 -0.26389906 -0.071519971 0.27392983
-1.9220001 11.787 0.47999999 -0.011411786 -0.25985277 -0.06937772 0.26919687
-1.9630001 11.803 0.48100001 -0.029879611 -0.26936913 -0.073919386 0.28092098
-1.999 11.793 0.48100001 -0.030102028 -0.25400525 -0.065433681 0.26401964
-2.036 11.788 0.48100001 -0.044593349 -0.26747006 -0.073434532 0.2809296
-2.075 11.792 0.48100001 -0.023388222 -0.28108764 -0.079918742 0.29316252
-2.095 11.798 0.48100001 -0.040322922 -0.28526777 -0.082766175 0.29975638
-2.135 11.803 0.48100001 -0.028519183 0.34648615 -0.84762084 0.91614795
-2.174 11.81 0.48199999 -0.025827255 0.35043767 -0.84353697 0.91379881
-2.21 11.796 0.48199999 -0.028122842 0.34771767 -0.84635413 0.9154309
-2.247 11.791 0.48199999 -0.02261903 0.35899878 -0.83263731 0.90701526
-2.2869999 11.797 0.48199999 -0.0082432292 0.34850013 -0.84231877 0.91160363
-2.3239999 11.79 0.48199999 -0.023213349 0.36022365 -0.82770753 0.90299487
-2.3629999 11.79 0.48199999 -0.0097962823 0.34661582 -0.8394767 0.90827286
-2.3840001 11.802 0.48300001 -0.0097962823 0.34661582 -0.8394767 0.90827286
-2.425 11.812 0.48300001 0.0023985072 0.32688543 -0.85056669 0.91122091
-2.46 11.795 0.48300001 0.0013804017 0.32941833 -0.84800017 0.90973771
-2.5020001 11.811 0.48300001 0.011947837 0.32784128 -0.84826899 0.90949601
-1.916 11.64 0.38699999 -0.032238957 -0.25212413 -0.065409333 0.26245821
-1.9349999 11.639 0.38699999 -0.034707226 -0.25183365 -0.063946009 0.2621333
-2.086 11.639 0.38800001 -0.034747668 -0.26053146 -0.068061054 0.27150756
-2.1240001 11.64 0.38800001 -0.037839793 -0.28135785 -0.08062911 0.29511887
-2.1619999 11.641 0.38800001 -0.033796534 -0.28788698 -0.086010337 0.30235556
-2.1789999 11.634 0.38800001 -0.043520823 -0.29347223 -0.088671952 0.30964938
-2.2190001 11.645 0.38800001 -0.039645106 -0.29817209 -0.088752836 0.31361663
-2.2579999 11.65 0.38800001 -0.036188774 -0.29398403 -0.085630745 0.30833238
-2.296 11.648 0.38800001 -0.020092931 0.34732303 -0.84109741 0.91020977
-2.3329999 11.645 0.38800001 -0.019449681 0.34476024 -0.8430863 0.91106117
-2.372 11.649 0.389 -0.015514284 0.34793562 -0.83862722 0.90807241
-2.408 11.64 0.389 -0.016365461 0.34813988 -0.83685529 0.90652961
-2.428 11.646 0.389 0.0074555497 -0.34212324 -0.11351174 0.36053962
-2.467 11.646 0.389 -0.0052928934 -0.33262748 -0.099682033 0.3472831
-2.5050001 11.646 0.389 0.00076540094 -0.34172711 -0.10604548 0.35780391
-2.5840001 11.657 0.389 -0.0043669688 -0.31282109 -0.086604089 0.32461727
-2.6210001 11.649 0.389 -0.0058206124 -0.31114808 -0.086116791 0.32289797
-2.6600001 11.655 0.38999999 -0.0020571777 -0.29604766 -0.074048877 0.30517483
-2.6819999 11.666 0.38999999 -0.0043314891 -0.29603422 -0.070501566 0.30434436
-2.72 11.661 0.38999999 -0.0043314891 -0.29603422 -0.070501566 0.30434436
-2.7539999 11.645 0.38999999 0.021835793 -0.28932947 -0.063675195 0.29705703
-2.7969999 11.664 0.38999999 0.00082266377 -0.2621083 -0.04905948 0.26666135
-1.594 11.768 0.32699999 -0.037791491 -0.26270688 -0.075266391 0.275877
-1.632 11.765 0.32699999 -0.046601012 -0.26399207 -0.074325562 0.27818656
-1.6720001 11.779 0.32800001 -0.062332429 -0.29358116 -0.090823293 0.31356674
-1.711 11.794 0.32800001 -0.040828295 -0.31668377 -0.10851741 0.33724114
-1.9119999 11.745 0.32800001 -0.029269259 -0.25334862 -0.065645069 0.2633467
-1.95 11.745 0.32800001 -0.020082798 -0.25463271 -0.065447181 0.26367494
-1.97 11.749 0.32800001 -0.024008676 -0.24978256 -0.062981367 0.25871682
-2.0039999 11.729 0.32800001 -0.037007157 -0.26554242 -0.071440011 0.2774635
-2.039 11.711 0.32699999 -0.034795843 -0.27346668 -0.076384187 0.28605825
-2.075 11.701 0.32699999 -0.031716324 -0.2622551 -0.068222433 0.27283323
-2.1159999 11.718 0.32800001 -0.034475464 -0.28464544 -0.080811411 0.29789609
-2.152 11.705 0.32800001 -0.028820405 -0.29310226 -0.086163044 0.30686092
-2.1919999 11.714 0.32800001 -0.025752803 -0.29564413 -0.08786884 0.30949894
-2.23 11.715 0.32800001 -0.028077178 -0.29699734 -0.086356312 0.31056908
-2.2490001 11.717 0.32800001 -0.021059077 0.3440907 -0.84587109 0.91342205
-2.2869999 11.716 0.32800001 -0.028374817 0.35393199 -0.83185244 0.90446198
-2.3199999 11.689 0.32800001 -0.017446399 0.34373179 -0.84309798 0.91064274
-2.359 11.69 0.32800001 -0.017141273 0.34769034 -0.83887017 0.90823215
-2.3970001 11.69 0.32800001 -0.015836477 0.34949836 -0.83692265 0.90710497
-2.434 11.683 0.32800001 -0.010571589 0.35080791 -0.83811539 0.90863377
-2.471 11.679 0.32800001 -0.002833561 -0.31968898 -0.094025791 0.33324155
-2.4909999 11.681 0.32800001 -0.002833561 -0.31968898 -0.094025791 0.33324155
-2.529 11.679 0.32800001 0.0014851764 -0.34074828 -0.1061275 0.35689586
-2.5680001 11.681 0.32800001 -0.007095322 -0.31844178 -0.086178035 0.32997298
-2.605 11.674 0.32800001 0.010184728 -0.33452645 -0.10008532 0.34932613
-2.642 11.668 0.32800001 -0.0020571777 -0.29604766 -0.074048877 0.30517483
-2.6830001 11.681 0.32800001 0.011042377 -0.31463468 -0.086472213 0.32648793
-2.721 11.677 0.32800001 -0.0042298893 -0.25889412 -0.050179482 0.26374614
-2.7420001 11.682 0.329 -0.0042298893 -0.25889412 -0.050179482 0.26374614
-2.7820001 11.691 0.329 0.00082266377 -0.2621083 -0.04905948 0.26666135
