# .PCD v0.7 - Point Cloud Data file format
VERSION 0.7
FIELDS x y z normal_x normal_y normal_z curvature
SIZE 4 4 4 4 4 4 4
TYPE F F F F F F F
COUNT 1 1 1 1 1 1 1
WIDTH 629
HEIGHT 1
VIEWPOINT 0 0 0 1 0 0 0
POINTS 629
DATA ascii
-5.9770002 5.1269999 -0.242 0.55543619 0.065389104 -0.42911389 0.70492822
-5.9850001 5.1020002 -0.242 0.55480587 0.044007517 -0.43767309 0.70802826
-5.9920001 5.0760002 -0.241 0.55583805 0.046211433 -0.44665545 0.71455759
-5.9949999 5.0450001 -0.23999999 0.55652463 0.053703967 -0.44792408 0.71640754
-5.9889998 5.0240002 -0.23899999 0.55678254 0.059670985 -0.4604142 0.72494739
-5.9850001 4.9889998 -0.23800001 0.55760473 0.027769582 -0.46605369 0.72725528
-5.9879999 4.96 -0.237 0.55758637 0.023892868 -0.46953264 0.72933829
-5.9759998 4.9180002 -0.235 0.55533069 0.041055135 -0.4702684 0.72885531
-5.9840002 4.8930001 -0.234 0.55598569 0.0490149 -0.48108387 0.73686105
-5.9819999 4.8600001 -0.233 0.55606931 0.04627315 -0.4832395 0.73815632
-5.9770002 4.8249998 -0.23100001 0.55597752 0.043589354 -0.48170304 0.73691851
-5.9720001 4.8049998 -0.23100001 0.5561592 0.052931771 -0.48162466 0.73761588
-5.9840002 4.7839999 -0.23 0.55583137 0.047688369 -0.48228607 0.73744321
-5.98 4.75 -0.229 0.55473655 0.045693398 -0.47660449 0.73278403
-6.0050001 4.7389998 -0.23 0.55465996 0.044023417 -0.47524863 0.73174244
-5.9819999 4.6900001 -0.227 0.55433381 0.036211677 -0.47220409 0.72909117
-5.9840002 4.6620002 -0.226 0.55420327 0.037800796 -0.46839994 0.72661453
-5.9780002 4.6269999 -0.22499999 0.55378348 0.033447824 -0.4636403 0.72301954
-6 4.6279998 -0.226 0.55026656 0.033641145 -0.4641645 0.72067589
-6.006 4.6030002 -0.22499999 0.55096006 0.034050249 -0.4669306 0.72300804
-6.0229998 5.2550001 -0.292 0.55794382 0.032662481 -0.43275848 0.70685786
-6.0440001 5.2399998 -0.292 0.5548228 0.031838566 -0.43334886 0.70472217
-6.033 5.197 -0.28999999 0.55066031 0.050358795 -0.43887481 0.70595604
-6.0419998 5.1719999 -0.289 0.55197644 0.047919959 -0.4481169 0.71258897
-6.0570002 5.151 -0.289 0.55261046 0.052426334 -0.44998923 0.71457481
-6.0619998 5.1230001 -0.28799999 0.55197096 0.038243413 -0.45674911 0.71746373
-6.066 5.0939999 -0.287 0.55146575 0.036026925 -0.45253971 0.71428609
-6.0510001 5.0650001 -0.28600001 0.55229229 0.04439972 -0.45388669 0.71624804
-6.0840001 5.0599999 -0.287 0.55144107 0.038796429 -0.44897753 0.71216094
-6.0430002 4.994 -0.28200001 0.54922533 0.017042989 -0.46224925 0.71806222
-6.0479999 4.967 -0.28200001 0.54960829 0.019839603 -0.46582916 0.72073549
-6.0580001 4.9439998 -0.28099999 0.54955834 0.022284886 -0.46297124 0.71892512
-6.0440001 4.901 -0.27900001 0.54998815 0.022130376 -0.47066522 0.7242254
-6.0500002 4.8740001 -0.278 0.55072814 0.030766778 -0.48055708 0.73156214
-6.0469999 4.8559999 -0.27700001 0.5481708 0.037880816 -0.47927871 0.72913253
-6.0450001 4.8239999 -0.27599999 0.54722953 0.036787529 -0.47778568 0.72738755
-6.0560002 4.8010001 -0.27500001 0.54719859 0.039713223 -0.48017147 0.72908711
-6.0440001 4.7610002 -0.273 0.54730022 0.045625359 -0.48095506 0.73002535
-6.059 4.7420001 -0.273 0.5473361 0.038849052 -0.47556272 0.72611701
-6.0479999 4.7030001 -0.271 0.54731178 0.04354379 -0.47306776 0.72473401
-6.0440001 4.6700001 -0.27000001 0.54688215 0.034928564 -0.4680334 0.72066313
-6.0510001 4.6599998 -0.27000001 0.54694021 0.030522209 -0.47216806 0.72319973
-6.0489998 4.6279998 -0.26899999 0.54691166 0.03417027 -0.46901515 0.72128713
-6.0599999 4.6059999 -0.26800001 0.54674518 0.031372525 -0.46768802 0.72017121
-6.0549998 4.573 -0.26699999 0.54607171 0.03462347 -0.46914557 0.72075701
-6.0539999 4.5419998 -0.266 0.54538202 0.03123641 -0.4667961 0.71855122
-6.0609999 4.5180001 -0.26499999 0.54530245 0.028708825 -0.46686488 0.7184301
-6.0560002 4.4850001 -0.264 0.53973192 0.00091860071 -0.42786747 0.6887539
-6.0469999 4.4640002 -0.26199999 0.53871644 -0.0030458905 -0.39974058 0.67083323
-6.0580001 4.4419999 -0.26199999 0.52063084 -0.022155926 -0.368698 0.63834596
-6.0570002 4.4130001 -0.26100001 0.51488864 -0.03110908 -0.3539319 0.62557644
-6.0500002 4.3790002 -0.259 0.46227485 -0.068985745 -0.25283346 0.53139609
-6.072 4.3649998 -0.25999999 0.4607048 -0.067369364 -0.24930651 0.52814889
-6.0599999 4.3280001 -0.25799999 0.41519952 -0.088076636 -0.19383705 0.46660575
-6.0599999 4.2989998 -0.257 0.39742431 -0.11125845 -0.1846464 0.45212701
-6.0539999 4.2810001 -0.25600001 0.39628026 -0.10868689 -0.18196574 0.44940227
-6.0380001 4.2410002 -0.25400001 0.36651313 -0.14664766 -0.16849902 0.42921945
-6.0479999 4.2199998 -0.25400001 0.36223498 -0.16309875 -0.17906016 0.43574986
-6.0409999 4.1869998 -0.252 0.36642694 -0.16349638 -0.17964593 0.43962759
-6.0409999 4.1589999 -0.25099999 0.33283469 -0.19508569 -0.16894349 0.42116418
-6.0619998 4.1459999 -0.252 0.33383489 -0.21304032 -0.18790314 0.43833718
-6.0739999 4.1259999 -0.252 0.30588317 -0.24058205 -0.18798083 0.43218172
-6.0970001 4.1269999 -0.25299999 0.27119669 -0.27932674 -0.20021883 0.43778837
-5.9990001 5.2290001 -0.345 0.55434889 0.030646525 -0.44196087 0.70962763
-5.9990001 5.1960001 -0.34400001 0.55091357 0.055828996 -0.44388872 0.70968997
-6.006 5.1690001 -0.34299999 0.55126661 0.045694508 -0.453118 0.71505159
-6.0190001 5.1630001 -0.34299999 0.55123723 0.045228623 -0.45357648 0.71528995
-6.0289998 5.1389999 -0.34299999 0.55157697 0.033757377 -0.46287307 0.72085238
-6.033 5.1100001 -0.34200001 0.54848433 0.033150967 -0.47118437 0.72384304
-6.053 5.0949998 -0.34200001 0.54898345 0.040092994 -0.46704543 0.72188765
-6.0450001 5.0549998 -0.34 0.54915231 0.044188794 -0.46338418 0.71989292
-6.0419998 5.0209999 -0.338 0.54942715 0.0089147724 -0.47694302 0.72761548
-6.0489998 4.994 -0.338 0.54964423 0.010819715 -0.47914904 0.72925282
-6.0289998 4.9619999 -0.33500001 0.55004895 0.016509371 -0.47999063 0.7302174
-6.0380001 4.9380002 -0.33500001 0.54995197 0.016884789 -0.47646657 0.72784108
-6.046 4.9120002 -0.33399999 0.55035919 0.020415962 -0.48323995 0.73268884
-6.0570002 4.8899999 -0.333 0.5495581 0.018163607 -0.48796764 0.73515743
-6.0380001 4.8429999 -0.33000001 0.54995304 0.02649997 -0.49271622 0.73886395
-6.0580001 4.8280001 -0.331 0.54974955 0.026615754 -0.48989135 0.73683548
-6.0370002 4.7800002 -0.32800001 0.55133468 0.041421231 -0.48649117 0.73645049
-6.0430002 4.7690001 -0.32800001 0.54740292 0.045647953 -0.48513988 0.73286724
-6.039 4.7360001 -0.32600001 0.55130756 0.046727296 -0.48210877 0.73386127
-6.039 4.704 -0.32499999 0.55127907 0.043277569 -0.48240265 0.73382139
-6.0489998 4.6820002 -0.324 0.54759002 0.042359017 -0.481199 0.73020655
-6.046 4.6490002 -0.32300001 0.55144131 0.036002304 -0.47593224 0.72931147
-6.053 4.6240001 -0.322 0.54645795 0.034947105 -0.47772712 0.72667789
-6.0500002 4.592 -0.31999999 0.55043137 0.036678635 -0.47440884 0.72758764
-6.0469999 4.5749998 -0.31999999 0.55059361 0.039367877 -0.47694367 0.7295056
-6.039 4.539 -0.31799999 0.54990643 0.03782732 -0.47258598 0.72606164
-6.0440001 4.513 -0.317 0.54849625 0.023194356 -0.45746082 0.71460235
-6.053 4.4899998 -0.31600001 0.54598033 0.011942346 -0.43816394 0.70016056
-6.0479999 4.4569998 -0.315 0.53973138 -0.011289924 -0.41022798 0.67802984
-6.0539999 4.4320002 -0.31400001 0.53145111 -0.027111854 -0.38053891 0.6542058
-6.0599999 4.4070001 -0.31299999 0.5074569 -0.045483917 -0.33973974 0.61237603
-6.0539999 4.388 -0.31200001 0.50688803 -0.048292823 -0.32837504 0.60588598
-6.0580001 4.362 -0.31200001 0.49199539 -0.077085972 -0.31973052 0.59180176
-6.052 4.329 -0.31 0.47550148 -0.097610079 -0.28831896 0.56458586
-6.0609999 4.3060002 -0.30899999 0.45425013 -0.10533412 -0.26093793 0.5343473
-6.0679998 4.283 -0.30899999 0.44627526 -0.11912492 -0.25710204 0.52863389
-6.0640001 4.2509999 -0.30700001 0.40275946 -0.15628168 -0.22063395 0.48509637
-6.0570002 4.2179999 -0.30599999 0.40848458 -0.15940851 -0.2308445 0.49554002
-6.0489998 4.184 -0.30399999 0.39506707 -0.19749331 -0.24377078 0.50448567
-6.0479999 4.1690001 -0.303 0.38168278 -0.20747432 -0.23574334 0.49426943
-6.0510001 4.1430001 -0.30199999 0.34886071 -0.23923987 -0.22914231 0.48108804
-6.0650001 4.125 -0.303 0.30936342 -0.28539312 -0.24201426 0.48551607
-6.0830002 4.1100001 -0.303 0.28812706 -0.31545117 -0.26366931 0.50204396
-6.131 4.1139998 -0.30599999 0.27389079 -0.32924744 -0.27166358 0.50716972
-6.184 4.1209998 -0.30899999 -0.12756911 0.47622246 -0.69485778 0.85199124
-6.2360001 4.1290002 -0.31200001 -0.072515607 0.50245184 -0.67036831 0.84089833
-6.263 4.132 -0.31400001 -0.035252009 0.51635391 -0.65223414 0.8326304
-6.3070002 4.1329999 -0.317 -0.0014815219 0.51579392 -0.6629228 0.83994776
-6.3499999 4.1329999 -0.31900001 0.026513999 0.5389725 -0.58110899 0.79302078
-6.402 4.138 -0.322 0.040447101 0.53783083 -0.56395954 0.7803514
-6.0359998 5.3000002 -0.38999999 0.55196458 -0.00011329353 -0.42878416 0.6989426
-6.026 5.2579999 -0.38800001 0.55719686 0.01641117 -0.43507802 0.70712841
-6.027 5.2259998 -0.38600001 0.55036396 0.022560865 -0.44170785 0.70605618
-6.039 5.2030001 -0.38600001 0.54759157 0.02396208 -0.4428831 0.70468158
-6.0489998 5.1950002 -0.38600001 0.55118763 0.022553705 -0.44279581 0.70737869
-6.0669999 5.177 -0.38600001 0.55525523 0.017980635 -0.45614818 0.71882045
-6.0710001 5.1479998 -0.38499999 0.54979599 0.017138556 -0.45979515 0.71692461
-6.085 5.1269999 -0.38499999 0.55043352 0.020222984 -0.46393484 0.72015387
-6.0910001 5.099 -0.384 0.551974 0.032209821 -0.46719497 0.7238673
-6.0819998 5.0599999 -0.38100001 0.54916024 0.042099476 -0.46705186 0.72214037
-6.0780001 5.0240002 -0.37900001 0.5495705 0.0094424672 -0.48003477 0.72976041
-6.0749998 5.006 -0.37799999 0.549559 0.0092413463 -0.48015389 0.72982758
-6.0799999 4.9780002 -0.377 0.55003852 0.015002914 -0.48304033 0.73218536
-6.0879998 4.9530001 -0.377 0.55023056 0.017729864 -0.48414162 0.7331174
-6.0949998 4.927 -0.37599999 0.54950994 0.018597811 -0.48586407 0.73373765
-6.0910001 4.8920002 -0.37400001 0.54933095 0.01379849 -0.4885872 0.73530424
-6.0819998 4.8540001 -0.37200001 0.54955399 0.020962095 -0.49017951 0.73669869
-6.0840001 4.8239999 -0.37 0.54972631 0.025199905 -0.49202338 0.73818767
-6.0799999 4.8060002 -0.36899999 0.55007249 0.029539369 -0.49520788 0.74073154
-6.0869999 4.7800002 -0.36899999 0.55016309 0.036292072 -0.49052343 0.73797679
-6.0879998 4.75 -0.36700001 0.54771167 0.040477633 -0.48861107 0.73509681
-6.0819998 4.7150002 -0.36500001 0.5468874 0.045618434 -0.48712674 0.73379791
-6.0929999 4.6929998 -0.36500001 0.54688972 0.045818806 -0.4871906 0.73385447
-6.0910001 4.6609998 -0.36399999 0.54669291 0.03494345 -0.48662531 0.73273349
-6.0879998 4.6290002 -0.36199999 0.54665399 0.035117906 -0.48440683 0.73124129
-6.098 4.6059999 -0.361 0.54666257 0.038793076 -0.48122665 0.7293312
-6.085 4.5809999 -0.36000001 0.54613376 0.034826752 -0.48227769 0.72942907
-6.086 4.552 -0.35800001 0.54609871 0.036898382 -0.47959495 0.72773391
-6.092 4.527 -0.35800001 0.54450971 0.016177529 -0.4637683 0.71542543
-6.0939999 4.4990001 -0.35600001 0.54104465 -0.0036736019 -0.44218463 0.69876325
-6.0840001 4.4619999 -0.354 0.53396082 -0.01947961 -0.40632176 0.67126077
-6.085 4.434 -0.35299999 0.52808273 -0.043196462 -0.39572516 0.66131359
-6.0999999 4.4159999 -0.35299999 0.51617455 -0.072118729 -0.37199816 0.64032799
-6.0890002 4.3930001 -0.352 0.51574796 -0.069855325 -0.36828429 0.63758063
-6.0949998 4.368 -0.35100001 0.49705645 -0.07869944 -0.33465755 0.60436279
-6.1009998 4.3429999 -0.34999999 0.44731763 -0.12300456 -0.26183254 0.53270954
-6.0929999 4.309 -0.34799999 0.44421655 -0.13039105 -0.26231635 0.53210902
-6.1059999 4.29 -0.34799999 0.42438293 -0.153898 -0.24950345 0.5157882
-6.0970001 4.2550001 -0.34599999 0.41958943 -0.16520755 -0.25212556 0.51663923
-6.0770001 4.2129998 -0.34299999 0.38237196 -0.20579757 -0.23831701 0.49533421
-6.0739999 4.197 -0.34200001 0.37604865 -0.24151018 -0.26691973 0.52056307
-6.0840001 4.1760001 -0.34200001 0.35939485 -0.27166209 -0.28507352 0.53313398
-6.0869999 4.1500001 -0.34099999 0.34927264 -0.27232078 -0.27156329 0.51951575
-6.1350002 4.1539998 -0.34400001 0.275677 -0.33000046 -0.27482662 0.51032126
-6.1760001 4.1529999 -0.347 0.23291484 -0.35397577 -0.27322716 0.50418371
-6.2309999 4.1620002 -0.34999999 -0.10194571 0.49456224 -0.67151415 0.84018809
-6.2740002 4.1620002 -0.35299999 -0.071248487 0.51601428 -0.63061738 0.8179397
-6.3070002 4.1690001 -0.35499999 -0.020806141 0.52633858 -0.62163144 0.81479496
-6.3499999 4.1690001 -0.35800001 0.0049334876 0.53919411 -0.58450019 0.79523271
-6.4000001 4.1729999 -0.361 0.033999316 0.5399732 -0.56125599 0.7795738
-6.4520001 4.178 -0.36500001 0.062676862 0.54318506 -0.51509684 0.75120109
-6.4899998 4.1729999 -0.36700001 0.069746487 0.54442221 -0.49719059 0.7405799
-6.552 4.184 -0.37099999 0.071624815 0.53426498 -0.4964225 0.73280591
-6.6069999 4.1900001 -0.375 0.062441289 0.53466284 -0.49292812 0.72989136
-6.6370001 4.1939998 -0.377 0.063617907 0.5346331 -0.49572772 0.73186457
-6.678 4.1900001 -0.37900001 0.056358267 0.53472024 -0.49143478 0.72842991
-6.7329998 4.1960001 -0.38299999 0.058736634 0.53435725 -0.48535529 0.72426337
-6.7740002 4.191 -0.38499999 0.049619645 0.5320282 -0.48316041 0.72038883
-5.9840002 5.2690001 -0.43799999 0.54776925 -0.010556571 -0.42352432 0.69248497
-5.994 5.2449999 -0.43799999 0.54749078 -0.0033881739 -0.42940092 0.6958037
-5.9819999 5.2010002 -0.435 0.55149299 -0.0052510127 -0.43060869 0.69971132
-5.9889998 5.1750002 -0.43399999 0.54524404 0.0036810637 -0.43504596 0.69754541
-5.987 5.1399999 -0.43200001 0.55108309 0.013411947 -0.44757897 0.71007001
-5.9990001 5.1170001 -0.43099999 0.54868209 0.019386373 -0.44663155 0.70774823
-6.0110002 5.0949998 -0.43099999 0.55081159 0.032404929 -0.45307109 0.71394455
-6.0149999 5.0830002 -0.43099999 0.55191284 0.038090259 -0.46082994 0.72001588
-6.027 5.0599999 -0.43000001 0.55196726 0.03885011 -0.4604764 0.719872
-6.0240002 5.026 -0.428 0.55287951 0.0056211613 -0.47028911 0.72586447
-6.0250001 4.994 -0.42699999 0.55366635 0.012882303 -0.47444156 0.72925109
-6.027 4.9629998 -0.42500001 0.5541386 0.017499391 -0.47845367 0.73232079
-6.033 4.9369998 -0.42399999 0.55000311 0.016027397 -0.47946376 0.72982591
-6.0250001 4.8990002 -0.42199999 0.55670363 0.01502556 -0.48246753 0.73683083
-6.027 4.869 -0.41999999 0.55279422 0.010795765 -0.48417482 0.73493075
-6.0190001 4.8470001 -0.419 0.55690724 0.020037904 -0.4847441 0.73859596
-6.0250001 4.8200002 -0.41800001 0.55345422 0.023251269 -0.48556337 0.73663014
-6.0209999 4.7859998 -0.41600001 0.55123526 0.042620372 -0.48108816 0.73288649
-6.0190001 4.7540002 -0.414 0.55128461 0.044923574 -0.48182929 0.73354775
-6.02 4.724 -0.41299999 0.55118489 0.042767894 -0.47929135 0.73167896
-6.0279999 4.6999998 -0.412 0.55115497 0.04480892 -0.47757828 0.7306577
-6.0209999 4.664 -0.41 0.55109173 0.037993845 -0.4793103 0.73135763
-6.0180001 4.6459999 -0.40900001 0.55010331 0.037005253 -0.47756031 0.72941548
-6.026 4.6220002 -0.40799999 0.54990673 0.038532808 -0.47183913 0.72561306
-6.0170002 4.585 -0.40599999 0.54972571 0.041959349 -0.47644916 0.72867191
-6.0149999 4.5539999 -0.40400001 0.54926866 0.040377807 -0.46711609 0.72216612
-6.026 4.5320001 -0.40400001 0.54960436 0.046842173 -0.46512043 0.72152346
-6.0289998 4.5050001 -0.403 0.54945737 0.04604755 -0.4627955 0.71986347
-6.026 4.473 -0.40099999 0.54706854 0.019949609 -0.44345906 0.70451254
-6.0250001 4.4569998 -0.40000001 0.54142666 0.0012675598 -0.41228479 0.68053156
-6.0209999 4.4250002 -0.398 0.53900617 -0.023365963 -0.41541496 0.68091351
-6.0209999 4.3959999 -0.39700001 0.53251827 -0.016657814 -0.39903891 0.66564649
-6.0229998 4.369 -0.396 0.52651203 -0.033394106 -0.3844263 0.6527738
-6.0320001 4.3460002 -0.39500001 0.51038963 -0.072322018 -0.35793406 0.62757057
-6.0359998 4.3200002 -0.39399999 0.50584447 -0.075983562 -0.34660998 0.61789209
-6.0359998 4.2919998 -0.39300001 0.4950186 -0.09256988 -0.33032924 0.60227072
-6.027 4.2709999 -0.391 0.49065942 -0.10190999 -0.32738173 0.59859097
-6.039 4.2509999 -0.391 0.47021586 -0.1362057 -0.31156629 0.58028311
-6.0110002 4.2030001 -0.38699999 0.45237735 -0.18359675 -0.32359412 0.58571851
-6.02 4.1810002 -0.38699999 0.41851509 -0.22623368 -0.3120926 0.5689801
-6.02 4.1529999 -0.38499999 0.39555067 -0.24953799 -0.30448323 0.55806774
-6.0159998 4.1230001 -0.384 0.3664861 -0.29669285 -0.33792585 0.58011431
-6.027 4.1020002 -0.384 0.34833759 -0.31234881 -0.3310681 0.57315528
-6.0869999 4.1290002 -0.389 0.30945 -0.33352011 -0.32481408 0.55901623
-6.119 4.1230001 -0.391 -0.18701643 0.47562972 -0.62719393 0.80905569
-6.1570001 4.1209998 -0.39300001 -0.14059642 0.49632075 -0.63168263 0.8155517
-6.2080002 4.1269999 -0.39700001 -0.10999948 0.51198769 -0.60821474 0.80259353
-6.2480001 4.125 -0.39899999 -0.057631087 0.52304834 -0.61543161 0.80972648
-6.289 4.1240001 -0.40200001 -0.011546038 0.53831166 -0.57470804 0.78752911
-6.342 4.131 -0.40599999 0.011371462 0.54258883 -0.55037159 0.77294296
-6.368 4.1339998 -0.40799999 0.03518299 0.5449391 -0.53512067 0.76455909
-6.4050002 4.1290002 -0.41 0.040869817 0.54095548 -0.53424394 0.76139331
-6.4759998 4.1469998 -0.41600001 0.072009511 0.54259372 -0.49408156 0.73736686
-6.5310001 4.1529999 -0.41999999 0.069473706 0.54334897 -0.49112272 0.7357012
-6.5440001 4.1329999 -0.41999999 0.069969654 0.54176551 -0.49194577 0.73513007
-6.599 4.1389999 -0.42399999 0.06462314 0.53452247 -0.48826748 0.72683942
-6.651 4.1420002 -0.42699999 0.060536575 0.53455001 -0.48292354 0.72292703
-6.691 4.1529999 -0.43099999 0.058148921 0.53427243 -0.48156005 0.72161514
-6.7309999 4.1490002 -0.433 0.059787974 0.53415942 -0.47958893 0.72035164
-6.783 4.152 -0.43700001 0.054976821 0.53162867 -0.47610599 0.7157712
-6.8410001 4.1570001 -0.44100001 0.05427783 0.53123152 -0.47972113 0.71783382
-6.8790002 4.151 -0.44299999 0.056509282 0.53097451 -0.47530007 0.71486878
-6.9349999 4.1550002 -0.447 0.058807053 0.52839005 -0.47054654 0.70997775
-6.9720001 4.1479998 -0.44999999 0.059521623 0.52838933 -0.47115469 0.71043992
-7.0300002 4.1680002 -0.454 0.05991013 0.5279997 -0.4649471 0.70607984
-5.9689999 5.2459998 -0.48199999 0.55029982 -0.011581853 -0.43162745 0.69947577
-5.954 5.217 -0.479 0.55375481 -0.0044473857 -0.44122216 0.70805448
-5.9809999 5.2080002 -0.48100001 0.55195707 -0.0089164451 -0.44150823 0.70687032
-5.9959998 5.1880002 -0.48100001 0.54916716 -0.0080909953 -0.4421497 0.70508611
-5.9990001 5.1570001 -0.479 0.54686469 -0.03075581 -0.45254487 0.71049547
-5.9899998 5.118 -0.47600001 0.55168766 0.015772298 -0.45073485 0.71257979
-6.0139999 5.105 -0.477 0.54930586 0.01831793 -0.4567962 0.71465743
-6.0190001 5.0770001 -0.47600001 0.54994613 0.022476561 -0.45799926 0.71603721
-6.0489998 5.086 -0.47799999 0.54671913 0.019101143 -0.46867162 0.72036088
-6.04 5.046 -0.47600001 0.54814065 -0.0051919334 -0.47662586 0.72640026
-6.0279999 5.0040002 -0.472 0.55272591 0.0035288669 -0.4711355 0.72628301
-6.0159998 4.9629998 -0.46900001 0.5569917 0.014073677 -0.47052225 0.72926605
-6.0710001 4.9749999 -0.47400001 0.54970753 0.009077508 -0.48711255 0.73453343
-6.0409999 4.9200001 -0.46900001 0.54900748 0.009470325 -0.48557803 0.73299724
-6.033 4.882 -0.46599999 0.55271584 0.0088264756 -0.48670611 0.73651582
-6.046 4.8759999 -0.46700001 0.54892892 0.0086693615 -0.4941262 0.73861951
-6.0250001 4.829 -0.463 0.55360562 0.025665244 -0.48986176 0.73966372
-6.0370002 4.8070002 -0.46200001 0.55368459 0.027649503 -0.49174184 0.74104059
-6.0320001 4.7719998 -0.46000001 0.55387318 0.036340188 -0.49712244 0.74513543
-6.0279999 4.7389998 -0.458 0.55145597 0.047643661 -0.490522 0.73958462
-6.0250001 4.7059999 -0.456 0.55144835 0.044665109 -0.49345249 0.7413404
-6.0289998 4.6630001 -0.454 0.55039638 0.038224339 -0.48871106 0.73704529
-6.026 4.631 -0.45199999 0.55044144 0.041164935 -0.48781094 0.73664093
-6.0209999 4.598 -0.44999999 0.55000955 0.03863813 -0.49010113 0.73770082
-6.033 4.5760002 -0.44999999 0.55006433 0.043069553 -0.49023208 0.738074
-6.0310001 4.5450001 -0.44800001 0.55021638 0.048779268 -0.47813481 0.73056853
-6.0370002 4.5209999 -0.447 0.55029732 0.052847594 -0.48169178 0.73324418
-6.0339999 4.4889998 -0.44499999 0.54819036 0.025196984 -0.45251575 0.71127921
-6.0310001 4.4720001 -0.44400001 0.54792464 0.019906325 -0.45249864 0.71089572
-6.027 4.4400001 -0.442 0.54330969 -0.016194064 -0.43947482 0.69898915
-6.0370002 4.4180002 -0.442 0.53863269 -0.02902865 -0.41840965 0.6826672
-6.033 4.3860002 -0.44 0.5355342 -0.040708024 -0.41159001 0.6766538
-6.046 4.3670001 -0.44 0.52707249 -0.060503919 -0.38914371 0.65795058
-6.0419998 4.335 -0.43799999 0.5175826 -0.069884993 -0.38242695 0.64732218
-6.0430002 4.3070002 -0.43700001 0.5064742 -0.092196457 -0.36540556 0.6312983
-6.0300002 4.2839999 -0.435 0.49902791 -0.10615405 -0.35647786 0.62239373
-6.0339999 4.2579999 -0.43399999 0.49353904 -0.11561801 -0.35036439 0.61620086
-6.0079999 4.211 -0.43000001 0.473409 -0.16845098 -0.35752004 0.61669475
-6.0079999 4.1830001 -0.428 0.44750607 -0.20516931 -0.34496358 0.60112894
-6.0089998 4.1570001 -0.42699999 0.43666735 -0.21990485 -0.34279224 0.59711224
-6.0240002 4.1389999 -0.42699999 0.4021017 -0.27104124 -0.36051929 0.60425436
-6.0190001 4.1079998 -0.42500001 0.36347097 -0.30636695 -0.34708646 0.58859229
-6.0669999 4.1259999 -0.43000001 -0.20446554 0.46868986 -0.61405945 0.79909033
-6.1139998 4.1300001 -0.433 -0.19187829 0.47761399 -0.61125183 0.79910022
-6.1339998 4.1149998 -0.43399999 -0.14310235 0.5000757 -0.60488343 0.79777062
-6.1869998 4.1230001 -0.43799999 -0.11993394 0.51107484 -0.58912617 0.78908253
-6.2459998 4.1339998 -0.44299999 -0.074190363 0.52809322 -0.57863474 0.78689569
-6.3039999 4.1440001 -0.447 -0.01239695 0.54183871 -0.54713124 0.77012688
-6.3410001 4.1389999 -0.44999999 0.0075963065 0.54359174 -0.53736401 0.76440156
-6.3909998 4.1570001 -0.454 0.031721346 0.54179025 -0.52021277 0.75177401
-6.4369998 4.158 -0.458 0.062050685 0.54176444 -0.49802324 0.73850262
-6.4819999 4.158 -0.461 0.069715098 0.54116434 -0.48396447 0.72934264
-6.5289998 4.1589999 -0.46399999 0.070993781 0.5334034 -0.48199373 0.72241074
-6.5739999 4.1589999 -0.46799999 0.066622563 0.53425241 -0.48071116 0.72176689
-6.6240001 4.1620002 -0.47099999 0.063516155 0.53427678 -0.47777805 0.71955389
-6.678 4.1659999 -0.47600001 0.060576726 0.53394198 -0.47218281 0.71534622
-6.7119999 4.1719999 -0.47799999 0.060350642 0.53394049 -0.47451764 0.71686935
-6.7670002 4.177 -0.48300001 0.056455266 0.53147084 -0.47373652 0.71419519
-6.8179998 4.1789999 -0.486 0.054992717 0.53143018 -0.47189385 0.71282965
-6.8720002 4.1820002 -0.49000001 0.055683628 0.53066313 -0.4686352 0.71015704
-6.9089999 4.1750002 -0.493 0.058530871 0.528193 -0.46695 0.70742917
-6.9660001 4.1789999 -0.49700001 0.059116658 0.5281837 -0.46723968 0.70766217
-7.026 4.1849999 -0.50199997 0.059796572 0.5279572 -0.46422669 0.7055642
-7.0650001 4.1929998 -0.505 0.062577017 0.52574921 -0.45836365 0.70030373
-7.1110001 4.1900001 -0.50800002 0.063048795 0.52561611 -0.45701444 0.69936371
-7.177 4.1989999 -0.514 0.065030865 0.51898026 -0.44922519 0.68947285
-7.2280002 4.198 -0.51800001 0.066113159 0.51622969 -0.4483667 0.68694741
-7.283 4.1989999 -0.52200001 0.062271427 0.51466614 -0.44536465 0.68345344
-7.322 4.191 -0.52399999 0.054556519 0.51151192 -0.4471955 0.68161917
-7.3930001 4.1999998 -0.52999997 0.050804034 0.51182789 -0.45142171 0.68434668
-7.441 4.1960001 -0.53299999 0.051807374 0.51221716 -0.45283586 0.68564618
-7.4920001 4.21 -0.53799999 0.048613459 0.51267529 -0.45178992 0.68506449
-7.5630002 4.2179999 -0.54299998 0.040578697 0.51244932 -0.45192799 0.6844632
-5.9159999 5.2140002 -0.52399999 0.55193388 -0.013868071 -0.44197419 0.70722312
-5.9070001 5.1729999 -0.52100003 0.54962921 -0.00091046095 -0.44692945 0.70840597
-5.9499998 5.178 -0.52399999 0.55122352 -0.017499968 -0.45374936 0.7141723
-5.9520001 5.1479998 -0.52200001 0.54794741 -0.018749684 -0.45518592 0.71259534
-5.9530001 5.132 -0.52100003 0.55060685 0.0052712634 -0.45902407 0.71686733
-5.9660001 5.1100001 -0.52100003 0.5518052 0.013000205 -0.45840335 0.71748978
-5.9699998 5.0809999 -0.51999998 0.55237222 0.013782844 -0.46690035 0.72339541
-5.987 5.0640001 -0.51999998 0.55377209 -0.016498908 -0.47118297 0.7272889
-6.0019999 5.0440001 -0.51999998 0.55433685 -0.012612015 -0.47220492 0.72830343
-5.993 5.0040002 -0.51700002 0.5554511 -0.0054981969 -0.47883427 0.73337466
-6.007 4.9840002 -0.51700002 0.55695367 0.0083600655 -0.48287517 0.73718089
-5.9980001 4.961 -0.51499999 0.55654275 0.0021584295 -0.48399749 0.73756224
-6.0029998 4.9330001 -0.51300001 0.55575359 0.0019760877 -0.48507369 0.7376737
-5.9970002 4.8959999 -0.51099998 0.55653214 0.011917274 -0.49549758 0.74524355
-5.9970002 4.8649998 -0.509 0.55653358 0.011940967 -0.4955804 0.74530005
-5.9980001 4.835 -0.50700003 0.55669981 0.014681956 -0.49167702 0.74288392
-5.9829998 4.7449999 -0.50099999 0.55507332 0.048599165 -0.49618959 0.74610484
-5.987 4.7179999 -0.5 0.55501866 0.046823412 -0.50044727 0.74878943
-5.9920001 4.631 -0.495 0.55402559 0.045443896 -0.49559283 0.74472934
-5.9889998 4.598 -0.493 0.55359256 0.046149425 -0.49108443 0.74145699
-6.0079999 4.5830002 -0.49399999 0.55008578 0.05084661 -0.49362653 0.74084204
-6 4.415 -0.484 0.54559553 -0.00024623051 -0.44400394 0.70343018
-5.9899998 4.3779998 -0.48100001 0.53960633 -0.032531116 -0.42888856 0.69005698
-6.0019999 4.3720002 -0.48199999 0.53959906 -0.032541636 -0.42884755 0.69002634
-6.0029998 4.3439999 -0.47999999 0.53363645 -0.032530576 -0.42113298 0.68057263
-6.0100002 4.3200002 -0.479 0.52740175 -0.05449605 -0.41124025 0.671
-6.0019999 4.2859998 -0.477 0.52148187 -0.068619855 -0.39860666 0.65995401
-6.0079999 4.2620001 -0.47600001 0.50415647 -0.11293249 -0.37870097 0.64057934
-5.9899998 4.2210002 -0.47299999 0.50599045 -0.12011968 -0.39823034 0.65501332
-5.961 4.1719999 -0.46799999 0.49628642 -0.13811098 -0.38759381 0.64467341
-5.9629998 4.1589999 -0.46700001 0.4581452 -0.20597227 -0.37903199 0.62927485
-5.9629998 4.131 -0.46599999 0.43624252 -0.24317217 -0.38548312 0.63090211
-5.987 4.1209998 -0.46700001 0.39895445 -0.28710395 -0.38696867 0.62557018
-6.0100002 4.1090002 -0.46799999 0.38654846 -0.29777077 -0.38154411 0.61940539
-6.079 4.1279998 -0.47400001 -0.19705145 0.47793514 -0.58741069 0.78249764
-6.1160002 4.1259999 -0.477 -0.18234007 0.48708561 -0.5812819 0.77999294
-6.1240001 4.1030002 -0.477 -0.16612253 0.49039713 -0.59003294 0.78499991
-6.1469998 4.1040001 -0.47799999 -0.12455633 0.508834 -0.58359176 0.78422296
-6.2329998 4.1339998 -0.48699999 -0.077068619 0.52943337 -0.54780322 0.76572031
-6.3930001 4.1259999 -0.498 0.050576761 0.53842711 -0.49435782 0.73270142
-6.493 4.1469998 -0.50700003 0.073764056 0.5301649 -0.48055202 0.71933734
-6.5279999 4.1409998 -0.50999999 0.071011119 0.53175426 -0.48005974 0.71990448
-6.5760002 4.1430001 -0.51300001 0.067381516 0.53184462 -0.47760344 0.71798605
-6.6170001 4.1399999 -0.51700002 0.064884543 0.53181106 -0.47423726 0.71549565
-6.6760001 4.1479998 -0.52100003 0.061961308 0.53219008 -0.47400844 0.71536672
-6.7210002 4.1469998 -0.52499998 0.060877994 0.53198659 -0.4714919 0.71345675
-6.7680001 4.1469998 -0.52899998 0.055902272 0.52951175 -0.46791247 0.70883691
-6.829 4.1539998 -0.53399998 0.056965187 0.52873242 -0.46364072 0.70552516
-6.8520002 4.1539998 -0.53600001 0.056171954 0.5270251 -0.46439603 0.70468038
-6.921 4.1669998 -0.542 0.058264293 0.5266304 -0.46234882 0.70320743
-6.9619999 4.1609998 -0.54500002 0.058213808 0.5263893 -0.45908937 0.70088345
-7.0110002 4.1609998 -0.54799998 0.057765566 0.52476674 -0.45690402 0.69819641
-7.0700002 4.1659999 -0.55299997 0.060886215 0.5250597 -0.45060906 0.69458145
-7.1139998 4.1620002 -0.55699998 0.063709013 0.52241611 -0.44467521 0.68899459
-7.177 4.1690001 -0.56199998 0.063861571 0.51730776 -0.44295239 0.68402666
-7.2280002 4.184 -0.56699997 0.065341815 0.51515484 -0.44389924 0.68315488
-7.2880001 4.1880002 -0.57200003 0.059685491 0.51371896 -0.44537726 0.68251771
-7.3390002 4.1869998 -0.57599998 0.05215811 0.51086289 -0.44491291 0.67944747
-7.3920002 4.1869998 -0.57999998 0.047080077 0.51143742 -0.44842714 0.68181497
-7.4359999 4.1810002 -0.583 0.047683895 0.51142353 -0.45076883 0.68338889
-7.5079999 4.191 -0.58899999 0.046288632 0.51225156 -0.45149618 0.68439251
-7.5580001 4.1880002 -0.59299999 0.044094607 0.5117619 -0.45025381 0.68306154
-7.6160002 4.2049999 -0.59899998 0.04480204 0.5116933 -0.44972441 0.68270731
-7.6719999 4.204 -0.60299999 0.048868448 0.51015663 -0.44833711 0.68092149
-7.7340002 4.2069998 -0.60799998 0.049418166 0.51023191 -0.44925654 0.68162322
-7.7779999 4.1989999 -0.61199999 0.047885031 0.50983912 -0.44696254 0.67970908
-7.849 4.2059999 -0.61799997 0.047198005 0.50930756 -0.45376888 0.68376023
-7.9060001 4.2049999 -0.62199998 0.046723995 0.50654507 -0.45564744 0.68292433
-5.9330001 5.2420001 -0.57700002 0.54240131 -0.060831681 -0.44219324 0.70244896
-5.934 5.21 -0.57499999 0.54539275 -0.054067142 -0.44765455 0.70765185
-5.9660001 5.2049999 -0.57700002 0.54724014 -0.047217757 -0.44794089 0.70876819
-5.9679999 5.1739998 -0.57499999 0.54519355 -0.053308338 -0.45554402 0.71245921
-5.9770002 5.1490002 -0.57499999 0.54804593 -0.04144571 -0.45598489 0.71413887
-5.9840002 5.1220002 -0.57300001 0.55144793 -0.019257486 -0.4564496 0.71610886
-6.0050001 5.1069999 -0.574 0.54664177 0.00022419542 -0.46002468 0.71445084
-6.0100002 5.0949998 -0.574 0.54743642 0.0038154274 -0.46307841 0.7170375
-6.0149999 5.0679998 -0.57200003 0.54957098 -0.02268688 -0.47178167 0.72465229
-6.0289998 5.0469999 -0.57200003 0.55022001 -0.018243287 -0.47200158 0.72516233
-6.0339999 5.02 -0.57099998 0.54588765 -0.024089195 -0.47920853 0.72678363
-6.027 4.9819999 -0.56800002 0.55094343 -0.010400228 -0.48084387 0.73133963
-6.0320001 4.954 -0.56599998 0.54807389 -0.00333713 -0.49275225 0.73702163
-6.0349998 4.9250002 -0.565 0.5474115 -0.0093976855 -0.49317178 0.7368623
-6.0320001 4.9070001 -0.56300002 0.55161375 -0.0054989308 -0.49262133 0.73958349
-6.0300002 4.8740001 -0.56099999 0.55251276 0.005567614 -0.50214767 0.74662817
-6.0440001 4.8540001 -0.56099999 0.5488041 0.007619828 -0.50335318 0.7447204
-6.0089998 4.7950001 -0.55500001 0.55726868 0.031023107 -0.50743985 0.75432485
-6.026 4.777 -0.55500001 0.55363256 0.031353183 -0.50790894 0.75197309
-6.0310001 4.7509999 -0.55400002 0.55268127 0.034661338 -0.51120532 0.75365037
-6.0349998 4.724 -0.55199999 0.55271614 0.037027624 -0.51094586 0.75361252
-6.0050001 4.6849999 -0.54799998 0.55385453 0.051329285 -0.50905293 0.75400561
-6.0289998 4.6729999 -0.54900002 0.55032426 0.049559925 -0.51036364 0.75218618
-6.0089998 4.6279998 -0.54500002 0.5500384 0.048857138 -0.50313538 0.74704385
-6.0159998 4.6030002 -0.54400003 0.55008376 0.045586962 -0.4996058 0.74449736
-6.027 4.5809999 -0.54299998 0.55003017 0.055434473 -0.49619794 0.74284488
-6.0250001 4.5510001 -0.54100001 0.55004662 0.054353233 -0.49657127 0.74302667
-6.02 4.5170002 -0.53899997 0.54987693 0.061931532 -0.49441767 0.74205726
-6.0180001 4.5009999 -0.53799999 0.54998487 0.05321366 -0.48636594 0.73611611
-6.0159998 4.4699998 -0.53600001 0.55016613 0.035820723 -0.48073572 0.73148668
-6.02 4.4439998 -0.53500003 0.54892397 0.01674526 -0.46982858 0.72272873
-6.0289998 4.4219999 -0.53399998 0.5459311 -0.0087747835 -0.45774835 0.71249652
-6.0370002 4.3979998 -0.53299999 0.54243374 -0.02891745 -0.44843221 0.70438772
-6.046 4.375 -0.53299999 0.54096341 -0.037517514 -0.44781816 0.70327097
-6.0510001 4.3509998 -0.53200001 0.53379345 -0.064334735 -0.43232286 0.68991119
-6.0349998 4.3249998 -0.52899998 0.52701789 -0.065703608 -0.42639792 0.68108737
-6.0359998 4.2969999 -0.52700001 0.51720357 -0.092862956 -0.41400266 0.66897029
-6.0229998 4.2600002 -0.52399999 0.51103765 -0.11703655 -0.41903737 0.67115521
-5.993 4.21 -0.51899999 0.49915281 -0.14608964 -0.41894609 0.66784096
-5.9720001 4.1669998 -0.51499999 0.47887886 -0.17847395 -0.42095131 0.66210115
-5.9899998 4.152 -0.51499999 0.47108591 -0.20250472 -0.41693282 0.66088051
-5.9829998 4.1199999 -0.51300001 0.42680573 -0.264557 -0.41666493 0.65250534
-6.0009999 4.118 -0.514 0.41747677 -0.27444693 -0.41282022 0.64809608
-6.0289998 4.1090002 -0.51599997 0.36449486 -0.32549828 -0.40382612 0.63394099
-6.0830002 4.118 -0.52100003 -0.21729153 0.47117126 -0.55924702 0.76287299
-6.1389999 4.1279998 -0.52600002 -0.138832 0.51175827 -0.54323781 0.75912988
-6.1729999 4.1230001 -0.52899998 -0.10152517 0.52265608 -0.53846836 0.75724828
-6.1209998 4.0599999 -0.52100003 -0.12192933 0.51516962 -0.54718423 0.76136523
-6.2270002 4.1020002 -0.53200001 -0.048054677 0.53522867 -0.52207905 0.74922997
-6.2950001 4.1329999 -0.53899997 -0.01120745 0.53997296 -0.50619167 0.74022055
-6.3530002 4.1420002 -0.54500002 0.013103325 0.54182822 -0.50458461 0.74051005
-6.3870001 4.1350002 -0.54699999 0.046449851 0.53838587 -0.48526821 0.72629344
-6.441 4.1420002 -0.55199999 0.072188422 0.53067344 -0.47641292 0.71679479
-6.4780002 4.1360002 -0.55500001 0.072404101 0.52936077 -0.47533685 0.71512955
-6.54 4.1469998 -0.56 0.067589767 0.53175145 -0.47555485 0.7165755
-6.5830002 4.145 -0.56400001 0.06684348 0.53163159 -0.47222444 0.71421009
-6.625 4.1420002 -0.56699997 0.064790338 0.53158617 -0.47274059 0.71432859
-6.677 4.1599998 -0.57200003 0.063334852 0.5318898 -0.46908632 0.71201128
-6.7160001 4.1550002 -0.57499999 0.065525755 0.53151506 -0.46629375 0.71009278
-6.7740002 4.1620002 -0.58099997 0.054853745 0.52938771 -0.4653393 0.70696604
-6.9229999 4.1630001 -0.59299999 0.056869023 0.52495819 -0.45879075 0.69950277
-6.9749999 4.164 -0.59799999 0.059280977 0.52455056 -0.4551706 0.69702786
-7.0419998 4.1890001 -0.60399997 0.061593525 0.51967847 -0.44896889 0.68951619
-7.0890002 4.1869998 -0.60799998 0.06367214 0.51888794 -0.44491294 0.68647385
-7.132 4.1820002 -0.61199999 0.064664751 0.51745659 -0.44469863 0.68534642
-7.1880002 4.184 -0.61699998 0.063329458 0.51647639 -0.44478905 0.68454057
-7.2420001 4.1849999 -0.62099999 0.065690316 0.51499194 -0.44656456 0.68480057
-7.3039999 4.1900001 -0.62699997 0.060447782 0.51378632 -0.44640186 0.68330443
-7.3600001 4.1919999 -0.63200003 0.04971125 0.5113126 -0.44818082 0.68174618
-7.414 4.2059999 -0.63700002 0.045063403 0.51149201 -0.44830614 0.68164003
-7.4580002 4.2010002 -0.63999999 0.046692286 0.51129782 -0.44918019 0.68217921
-7.5250001 4.2069998 -0.64600003 0.048038371 0.51181334 -0.44750023 0.68155485
-7.572 4.2020001 -0.64999998 0.044348828 0.51158625 -0.44854173 0.6818189
-7.6440001 4.21 -0.65700001 0.047406796 0.51164633 -0.45102248 0.6837036
-7.6989999 4.2090001 -0.662 0.047429658 0.51074284 -0.45404428 0.68502849
-7.763 4.2119999 -0.667 0.047928527 0.51064831 -0.45545641 0.68592954
-7.8010001 4.217 -0.671 0.049250744 0.51042986 -0.4534322 0.6845181
-7.8709998 4.2220001 -0.67699999 0.047827046 0.50837994 -0.45329836 0.68280083
-7.9349999 4.2249999 -0.68300003 0.045626458 0.50618058 -0.45335087 0.68104887
-7.9910002 4.2220001 -0.68699998 0.048144195 0.50591052 -0.45110935 0.67953146
-5.9239998 5.23 -0.625 0.53340888 -0.082859457 -0.42581236 0.68753684
-5.9169998 5.1900001 -0.62099999 0.5352385 -0.079271339 -0.42943066 0.69077849
-5.9720001 5.2059999 -0.62699997 0.53519481 -0.091261461 -0.43207556 0.69386703
-5.9569998 5.177 -0.62400001 0.53834969 -0.070531242 -0.43325764 0.6946274
-5.9679999 5.1529999 -0.62300003 0.54035854 -0.065702699 -0.43871215 0.69912267
-5.9879999 5.138 -0.62300003 0.54512095 -0.049545825 -0.44395396 0.70477426
-5.9920001 5.1079998 -0.62199998 0.54905713 -0.027379327 -0.44675568 0.70838124
-6.007 5.0879998 -0.62099999 0.55100656 -0.050773416 -0.45797226 0.718279
-6.02 5.0669999 -0.62099999 0.54675829 -0.03552347 -0.45921734 0.71490359
-6.0240002 5.0380001 -0.61900002 0.54767412 -0.029029448 -0.45679215 0.71375674
-6.0240002 5.0219998 -0.61799997 0.54883951 -0.023239974 -0.46042743 0.71676934
-6.033 4.9980001 -0.61799997 0.54399073 -0.029655378 -0.46700668 0.71756577
-6.0370002 4.9689999 -0.616 0.54543155 -0.021680709 -0.47120172 0.72110796
-6.039 4.9380002 -0.61400002 0.54610837 -0.017899141 -0.47663859 0.72507864
-6.046 4.9130001 -0.61299998 0.54712898 -0.01120935 -0.48574466 0.73172647
-6.039 4.875 -0.61000001 0.54803568 -0.002827622 -0.49272126 0.73697037
-6.0349998 4.8410001 -0.60699999 0.55285376 0.0098140389 -0.49630967 0.74301201
-6.026 4.8179998 -0.60500002 0.55298054 0.011973346 -0.49847752 0.7445876
-6.0180001 4.7800002 -0.602 0.55264425 0.026750505 -0.50614393 0.74987531
-6.02 4.7519999 -0.60000002 0.55273354 0.033180166 -0.50862247 0.75187242
-6.027 4.7259998 -0.59899998 0.55275953 0.037926812 -0.50973415 0.75286818
-6.027 4.6950002 -0.597 0.55040252 0.04898781 -0.5075615 0.75030756
-6.0190001 4.6589999 -0.59399998 0.54995406 0.049480893 -0.5072394 0.74979305
-6.0279999 4.6350002 -0.59299999 0.54991335 0.055765741 -0.50584662 0.74926317
-6.0159998 4.6110001 -0.59100002 0.55003268 0.05216755 -0.50186938 0.74641162
-6.0180001 4.5830002 -0.58899999 0.5500316 0.054812446 -0.49838001 0.74425924
-6.0209999 4.5549998 -0.588 0.54983485 0.063249484 -0.49642324 0.74347484
-6.0159998 4.5219998 -0.58499998 0.54978627 0.063362658 -0.48847124 0.73816252
-6.027 4.5009999 -0.58499998 0.54998422 0.055115696 -0.48804459 0.73736554
-6.0240002 4.4689999 -0.583 0.55037332 0.045280453 -0.48372814 0.73413485
-6.027 4.441 -0.58099997 0.54935354 0.019168828 -0.47628602 0.72732735
-6.0320001 4.4310002 -0.58099997 0.54814821 0.0044906922 -0.47251314 0.7237094
-6.0300002 4.4000001 -0.579 0.54518574 -0.018313695 -0.46393368 0.71609873
-6.026 4.368 -0.57700002 0.5438447 -0.020078879 -0.44972467 0.70599043
-6.0289998 4.3410001 -0.57499999 0.53933454 -0.043447819 -0.44230402 0.69885784
-6.0310001 4.3140001 -0.574 0.52663606 -0.068688773 -0.42928573 0.68289816
-6.0229998 4.2800002 -0.57099998 0.52049196 -0.090408951 -0.42160472 0.67589658
-6.0190001 4.2480001 -0.56900001 0.51095444 -0.12089843 -0.42795458 0.67737436
-5.9619999 4.1939998 -0.56099999 0.50656652 -0.12021355 -0.42735896 0.67357004
-5.9689999 4.1700001 -0.56 0.50023812 -0.1371704 -0.42098176 0.66804159
-5.9749999 4.1469998 -0.55900002 0.47918224 -0.17889062 -0.41352716 0.65774024
-5.9879999 4.1279998 -0.55900002 0.4332363 -0.24874523 -0.40988973 0.64620233
-6.0009999 4.1100001 -0.55900002 0.39565873 -0.30392277 -0.42334893 0.65432346
-6.0320001 4.1030002 -0.56099999 -0.25183207 0.44453174 -0.54809028 0.74928689
-6.0900002 4.1139998 -0.56699997 -0.20101123 0.47915512 -0.55046225 0.75697017
-6.145 4.1240001 -0.57200003 -0.13182679 0.51312155 -0.53051633 0.74974638
-6.1700001 4.1269999 -0.57499999 -0.11474197 0.51970935 -0.52115715 0.7448948
-6.2210002 4.1329999 -0.579 -0.068970308 0.53218305 -0.50252551 0.73519224
-6.25 4.1240001 -0.58099997 -0.052152138 0.5351395 -0.49880585 0.73341757
-6.2719998 4.1100001 -0.58200002 -0.0090087876 0.54026884 -0.49968797 0.73597533
-6.4089999 4.1430001 -0.59600002 0.069733456 0.53011656 -0.47683716 0.7164216
-6.4400001 4.1350002 -0.59899998 0.073426925 0.52990741 -0.47752187 0.71709174
-6.4920001 4.1539998 -0.60399997 0.073708937 0.52991158 -0.4741492 0.71488237
-6.5279999 4.1490002 -0.60699999 0.065300629 0.53044629 -0.47516033 0.71513271
-6.5799999 4.1529999 -0.61199999 0.06648723 0.53161567 -0.47159186 0.71374696
-6.6420002 4.1630001 -0.61799997 0.067042992 0.53134096 -0.46984902 0.71244377
-6.6729999 4.1529999 -0.62 0.06732811 0.5312748 -0.46888709 0.71178722
-6.7249999 4.1570001 -0.625 0.065420963 0.53103125 -0.46565685 0.70930278
-6.7649999 4.152 -0.62800002 0.060017291 0.52672035 -0.46189377 0.70312321
-6.8330002 4.1789999 -0.63599998 0.058939066 0.52634466 -0.45684433 0.69944209
-6.9289999 4.178 -0.64399999 0.05813152 0.52448916 -0.45385534 0.69602644
-6.9229999 4.145 -0.64200002 0.058889784 0.52457076 -0.45334888 0.69582158
-7.072 4.1750002 -0.65700001 0.064638495 0.51837492 -0.4460302 0.68690145
-7.1399999 4.1700001 -0.66299999 0.065239325 0.51698506 -0.44519928 0.68537003
-7.2470002 4.2030001 -0.67400002 0.065067746 0.51502484 -0.44655865 0.68476206
-7.342 4.197 -0.68300003 0.049226113 0.51145422 -0.44939214 0.68261403
-7.4039998 4.2010002 -0.68800002 0.044313848 0.51177955 -0.45097822 0.68356663
-7.4520001 4.198 -0.69199997 0.04663467 0.51156068 -0.45187247 0.68414754
-7.5050001 4.197 -0.69700003 0.04798558 0.51212227 -0.4505873 0.68381339
-7.5739999 4.2199998 -0.70499998 0.045685425 0.51167494 -0.44976491 0.68277878
-7.6230001 4.2160001 -0.70899999 0.04266613 0.51187223 -0.4521392 0.68429774
-7.684 4.2179999 -0.71499997 0.046739399 0.51179242 -0.45235908 0.68464941
-7.737 4.2160001 -0.71899998 0.047886088 0.51046401 -0.45337018 0.68440568
-7.796 4.217 -0.72500002 0.048801146 0.51054919 -0.45461169 0.68535668
-7.8530002 4.2160001 -0.73000002 0.046479914 0.50840849 -0.45318022 0.68265063
-7.9219999 4.2210002 -0.73699999 0.045271493 0.50818586 -0.45048094 0.68061399
-7.9089999 4.198 -0.73400003 0.043253787 0.50846332 -0.45291057 0.68230039
-5.9460001 5.2579999 -0.68000001 0.52466518 -0.10181968 -0.41442186 0.67630339
-5.9369998 5.217 -0.67699999 0.53365064 -0.079757482 -0.41997129 0.68375444
-6.007 5.2449999 -0.685 0.52404541 -0.097164296 -0.41807058 0.67738283
-5.9840002 5.2080002 -0.68000001 0.53605175 -0.0850811 -0.42417252 0.68884873
-6.0120001 5.1999998 -0.68199998 0.5327704 -0.085505307 -0.42462835 0.68663287
-6.0040002 5.1599998 -0.67799997 0.53305197 -0.072817132 -0.42248434 0.68406123
-6.0489998 5.1659999 -0.68199998 0.5273602 -0.092063941 -0.42610896 0.68421733
-6.0310001 5.1170001 -0.67699999 0.53518468 -0.055252001 -0.42825443 0.68766075
-6.0560002 5.1059999 -0.67900002 0.53411275 -0.084787436 -0.43459773 0.6937871
-6.0489998 5.0679998 -0.67500001 0.54141206 -0.058107756 -0.44682339 0.70438248
-6.0510001 5.053 -0.67500001 0.54295337 -0.051121406 -0.44936696 0.70664167
-6.0669999 5.0339999 -0.67500001 0.54101098 -0.04141986 -0.45315468 0.70693541
-6.066 5.0009999 -0.67199999 0.54008573 -0.049119402 -0.45612043 0.70862621
-6.0630002 4.967 -0.66900003 0.54342979 -0.031777281 -0.46143293 0.71361482
-6.0580001 4.9320002 -0.667 0.54401028 -0.031759541 -0.47110334 0.72034311
-6.0710001 4.9099998 -0.66600001 0.54525906 -0.019370589 -0.47900409 0.72603554
-6.0669999 4.8759999 -0.66399997 0.54638004 -0.0099117272 -0.4811298 0.72809011
-6.0450001 4.8429999 -0.65899998 0.54677373 -0.0063153021 -0.48258245 0.72930598
-6.0640001 4.8270001 -0.66000003 0.54803163 0.0077937059 -0.4887926 0.73438245
-6.0430002 4.7789998 -0.65499997 0.55236369 0.017276334 -0.49041134 0.73885548
-6.0479999 4.7529998 -0.653 0.55275911 0.026780052 -0.49477687 0.74233681
-6.0479999 4.7220001 -0.65100002 0.55289131 0.032446899 -0.4971931 0.74427319
-6.0580001 4.6989999 -0.64999998 0.54870427 0.03657588 -0.49888301 0.74249476
-6.0489998 4.6620002 -0.64700001 0.5499661 0.056969784 -0.50129151 0.74632531
-6.0510001 4.6490002 -0.64700001 0.54998934 0.05686539 -0.49914959 0.74489748
-6.0440001 4.6129999 -0.64300001 0.5499928 0.057360053 -0.49651355 0.74317425
-6.0630002 4.5970001 -0.64399999 0.54599786 0.061899804 -0.49642619 0.74052966
-6.0469999 4.5560002 -0.63999999 0.5495528 0.070201091 -0.49258521 0.74133438
-6.0380001 4.5190001 -0.63700002 0.54961586 0.067507155 -0.487353 0.73766369
-6.0599999 4.506 -0.63800001 0.55046165 0.04551883 -0.48856261 0.73740995
-6.0549998 4.473 -0.63499999 0.55045354 0.04107593 -0.49125695 0.73893148
-6.0640001 4.4499998 -0.634 0.54924655 0.012035027 -0.49201861 0.73749506
-6.0500002 4.4250002 -0.63200003 0.54800445 -0.00073760003 -0.48173383 0.72964162
-6.0479999 4.395 -0.62900001 0.54740244 -0.0040386729 -0.47395009 0.72408181
-6.0630002 4.3769999 -0.63 0.54215467 -0.040848602 -0.47290277 0.72058123
-6.046 4.336 -0.625 0.53605157 -0.069594651 -0.4715142 0.71730071
-6.04 4.303 -0.62300003 0.5285539 -0.098163635 -0.46442509 0.7104196
-6.026 4.2649999 -0.61900002 0.5169732 -0.11428128 -0.46113536 0.70211631
-5.9770002 4.2030001 -0.611 0.50457919 -0.13544245 -0.46679491 0.7006014
-5.9819999 4.1919999 -0.61000001 0.50254285 -0.13984585 -0.46399713 0.69814003
-6.0250001 4.1939998 -0.61400002 0.47056708 -0.20960294 -0.46140099 0.69156176
-6.0180001 4.1609998 -0.61199999 0.45163733 -0.24163184 -0.45833713 0.68733919
-6.0149999 4.131 -0.60900003 0.42365903 -0.27969712 -0.45911545 0.68447381
-6.0409999 4.1209998 -0.611 -0.27947778 0.42490488 -0.52174455 0.72860783
-6.105 4.1360002 -0.61799997 -0.18553109 0.49079764 -0.49791297 0.72334045
-6.1960001 4.1690001 -0.62800002 -0.1376113 0.51214558 -0.48917198 0.72147018
-6.197 4.1560001 -0.62800002 -0.10101244 0.52445292 -0.48129433 0.71895665
-6.2249999 4.1459999 -0.63 -0.070326149 0.53168279 -0.48132408 0.72062838
-6.2480001 4.1329999 -0.63099998 -0.05622432 0.53407586 -0.47964126 0.72003746
-6.2979999 4.138 -0.63599998 -0.012435168 0.53958291 -0.47787482 0.72088045
-6.3540001 4.1459999 -0.64200002 0.028921489 0.53425258 -0.47263712 0.71389639
-6.3990002 4.1459999 -0.64600003 0.058957539 0.53045905 -0.47854438 0.71684551
-6.4660001 4.1599998 -0.653 0.074431032 0.52924424 -0.47572762 0.71551114
-6.5339999 4.1900001 -0.66100001 0.067122027 0.53029799 -0.47396815 0.71439987
-6.586 4.1939998 -0.66600001 0.068531744 0.53136909 -0.47170833 0.71383363
-6.6090002 4.1789999 -0.667 0.068431474 0.53126001 -0.46955049 0.71231854
-6.6389999 4.1690001 -0.67000002 0.070883065 0.53093874 -0.466162 0.71008968
-6.6880002 4.1700001 -0.67400002 0.067056313 0.53112292 -0.46610686 0.7098195
-6.7350001 4.1700001 -0.67900002 0.069479436 0.53067935 -0.46318814 0.70780736
-6.7779999 4.1669998 -0.68300003 0.061108835 0.52500015 -0.45977724 0.70053875
-7.0609999 4.204 -0.71200001 0.06517715 0.51872766 -0.44981867 0.68968344
-7.1030002 4.198 -0.71499997 0.063429587 0.51875687 -0.44912863 0.68909252
-7.1440001 4.1919999 -0.71899998 0.06339857 0.51667434 -0.45010662 0.68816257
-7.2030001 4.2119999 -0.72600001 0.063607857 0.51689839 -0.44901621 0.68763763
-7.381 4.2220001 -0.74299997 0.046195269 0.51222742 -0.45656857 0.68772507
-7.441 4.2249999 -0.74900001 0.046219744 0.51213247 -0.45547611 0.68693113
-7.5799999 4.2410002 -0.764 0.044689044 0.51203185 -0.45326191 0.68528831
-7.6199999 4.2480001 -0.76800001 0.045983531 0.51196069 -0.45396551 0.68578637
-7.6700001 4.244 -0.77200001 0.044922475 0.51180971 -0.45202133 0.68431753
-7.704 4.2309999 -0.77499998 0.044136494 0.51164329 -0.45299256 0.684784
-7.7189999 4.2080002 -0.77499998 0.045401122 0.51160407 -0.4528982 0.68477494
-7.8520002 4.2480001 -0.79000002 0.046710901 0.50899845 -0.46023259 0.68780476
-7.902 4.243 -0.79500002 0.043689586 0.50912255 -0.46085349 0.68811369
-7.9619999 4.243 -0.801 0.04318634 0.50697458 -0.46000922 0.68592763
-8.0109997 4.2529998 -0.80599999 0.049237415 0.50670302 -0.46067804 0.68658322
-5.8990002 5.2639999 -0.72600001 0.51985282 -0.1170221 -0.41880828 0.67774737
-5.902 5.2340002 -0.72399998 0.52712941 -0.093620047 -0.41022801 0.67447549
-5.9260001 5.2220001 -0.72500002 0.52423751 -0.11280432 -0.41837654 0.68013871
-5.9369998 5.1989999 -0.72399998 0.53224051 -0.092922553 -0.41547897 0.68156976
-5.9580002 5.184 -0.72500002 0.53308272 -0.09273538 -0.4204095 0.68521619
-5.9699998 5.1620002 -0.72399998 0.53487295 -0.088801891 -0.42399892 0.68829495
-5.9850001 5.1420002 -0.72399998 0.53706604 -0.071061261 -0.42466259 0.68835163
-5.9819999 5.1230001 -0.722 0.53735465 -0.096648239 -0.42954591 0.69469464
-5.9980001 5.1040001 -0.722 0.53965873 -0.089743301 -0.43359175 0.69805962
-6.007 5.079 -0.72100002 0.54155767 -0.081882238 -0.43229648 0.69776046
-6.0229998 5.0599999 -0.72100002 0.53998798 -0.078577727 -0.43966141 0.70075929
-6.039 5.0409999 -0.72100002 0.53795552 -0.073092371 -0.44787493 0.70379728
-6.0440001 5.013 -0.72000003 0.53834921 -0.056857649 -0.45351306 0.7062059
-6.046 4.9829998 -0.71700001 0.54164153 -0.042368885 -0.46052563 0.71221805
-6.04 4.9619999 -0.71499997 0.54108769 -0.046758886 -0.46307644 0.71372408
-6.0370002 4.928 -0.713 0.54358792 -0.035700519 -0.4749442 0.722727
-6.0310001 4.8909998 -0.70899999 0.54919481 -0.02427382 -0.47911903 0.72921818
-6.0349998 4.8639998 -0.708 0.54953271 -0.0154946 -0.48191649 0.73107439
-6.0380001 4.835 -0.70599997 0.55082756 -0.003984753 -0.48678488 0.73510975
-6.0409999 4.8060002 -0.704 0.55220675 0.014458872 -0.48931226 0.73794842
