# .PCD v0.7 - Point Cloud Data file format
VERSION 0.7
FIELDS x y z normal_x normal_y normal_z curvature
SIZE 4 4 4 4 4 4 4
TYPE F F F F F F F
COUNT 1 1 1 1 1 1 1
WIDTH 66
HEIGHT 1
VIEWPOINT 0 0 0 1 0 0 0
POINTS 66
DATA ascii
-28.26 10.058 0.16 -0.36882782 0.070171826 0.64393342 0.74539137
-28.163 9.6759996 0.16 -0.28479701 -0.060215387 0.62304294 0.68769014
-28.089001 9.552 0.16 -0.16485825 -0.074633643 0.55124474 0.58018893
-28.475 9.4840002 0.16 -0.55312502 0.063554555 0.64952922 0.85549676
-28.08 11.61 -0.034000002 -0.33230472 0.023834988 -0.11491933 0.35242161
-28.285 11.384 -0.034000002 -0.08954981 -0.26152685 0.36614746 0.45878038
-28.407 11.33 -0.035 -0.14329696 -0.036009964 0.53748518 0.55742359
-28.469 11.251 -0.035 -0.1040948 0.040747717 0.49540889 0.50786424
-28.42 11.128 -0.035 -0.15369564 0.10374026 0.52870274 0.56027758
-28.09 10.745 -0.030999999 0.26133114 -0.058793653 -0.092405975 0.28335404
-28.271999 10.713 -0.032000002 -0.15325159 -0.0081266733 0.54661036 0.56774551
-28.049 10.527 -0.029999999 0.27305895 -0.13271943 -0.10025981 0.31973061
-28.288 10.516 -0.032000002 -0.17275465 -0.080968067 0.55633461 0.58813959
-28.159 10.368 -0.030999999 -0.13851586 -0.024902888 0.53373861 0.55198163
-28.243 10.348 -0.030999999 -0.14673856 0.0059150932 0.54064071 0.56023175
-28.143999 10.111 -0.029999999 -0.15829358 0.042162083 0.54676551 0.5707776
-28.377001 10.095 -0.032000002 -0.35452896 0.00039154012 0.64769739 0.73837852
-28.062 9.8830004 -0.028999999 -0.10153586 0.078594722 0.48405764 0.50079781
-27.934 9.7390003 -0.027000001 0.39757138 -0.094880432 -0.24921998 0.4787232
-28.261 9.7539997 -0.029999999 -0.15886402 0.016714185 0.55006325 0.57278854
-28.055 9.6339998 -0.028000001 -0.038547188 -0.049471263 0.40731025 0.41211033
-27.993 9.5139999 -0.027000001 -0.027016371 -0.036699332 0.38734329 0.3900148
-28.025999 9.427 -0.027000001 -0.0092102885 -0.10419436 0.32601225 0.34238178
-28.250999 9.4040003 -0.028999999 -0.12606579 -0.086686149 0.51483345 0.53708524
-28.075001 9.2480001 -0.027000001 -0.042160362 -0.17962848 0.35437799 0.39953429
-28.014999 9.1300001 -0.026000001 -0.038074672 -0.20365535 0.4598853 0.50440031
-28.306999 8.9799995 -0.028000001 -0.79078102 0.35829192 0.36895081 0.94330931
-28.344999 8.8940001 -0.028000001 -0.56544697 0.20979354 0.70287812 0.92616481
-28.150999 11.537 -0.221 0.0055628717 0.053733006 0.29106402 0.29603451
-28.322001 11.349 -0.222 -0.064401209 0.16287802 0.39027667 0.4277764
-28.202 11.198 -0.22 -0.039304405 0.081453614 0.39240813 0.40269551
-28.108 11.059 -0.21799999 0.36006898 0.11223427 -0.28263929 0.47130793
-28.072001 10.943 -0.21699999 0.40634653 0.049440987 -0.32709932 0.5239808
-28.063 10.838 -0.21600001 0.32292682 0.035478227 -0.17499578 0.36900401
-27.945999 10.742 -0.214 0.29942653 -0.057716154 -0.12495679 0.32954755
-28 10.662 -0.214 0.27836713 -0.10181669 -0.10351035 0.31395745
-27.948999 10.543 -0.213 0.29440507 -0.14284807 -0.11960366 0.34840342
-28.059 10.483 -0.214 0.27066872 -0.13043259 -0.098160714 0.31608501
-28.112 10.403 -0.215 0.25253174 -0.10716968 -0.08336851 0.28671923
-28.042999 10.277 -0.213 0.26690447 -0.084787644 -0.09466055 0.29561388
-28.021 10.169 -0.212 0.30162671 -0.045468912 -0.1288017 0.33111322
-27.9 10.076 -0.20999999 0.37108445 0.0059146956 -0.22766247 0.43539506
-28.004999 10.014 -0.211 0.39317843 -0.044513471 -0.24825189 0.46711853
-27.948999 9.8959999 -0.20999999 0.30207512 -0.078098297 -0.12547386 0.33629215
-27.962999 9.802 -0.20999999 0.3296271 -0.086212337 -0.15330863 0.37361762
-28.000999 9.717 -0.20999999 0.34780505 -0.11420348 -0.19156438 0.41316789
-28.002001 9.618 -0.20900001 0.3736693 -0.13194929 -0.23216784 0.45928344
-28.024 9.5279999 -0.20900001 -0.039355636 -0.066258356 0.40570384 0.41295841
-27.986 9.4659996 -0.20900001 0.0075317621 -0.11098986 0.26103279 0.28374919
-28.023001 9.3800001 -0.20900001 0.006973207 -0.11901247 0.25535673 0.28181493
-28.024 9.283 -0.208 -0.0013457537 -0.13106775 0.28009236 0.30924472
-28.089001 9.2069998 -0.20900001 -0.049456418 -0.23663889 0.3070817 0.39082357
-28.158001 9.1309996 -0.20900001 -0.030099392 -0.2544792 0.34930652 0.43322131
-28.186001 9.0430002 -0.20900001 -0.79393733 0.33947563 0.40543398 0.95391661
-28.327 8.9899998 -0.211 -0.62991345 0.27945575 0.64124393 0.94131839
-28.440001 8.9759998 -0.212 -0.56544697 0.20979354 0.70287812 0.92616481
-28.68 8.9530001 -0.21600001 -0.54381526 0.05405454 0.74176908 0.92134595
-28.351 8.7530003 -0.20999999 -0.55899215 0.12096027 0.73028076 0.92758483
-28.642 8.7440004 -0.214 -0.54381526 0.05405454 0.74176908 0.92134595
-28.114 11.367 -0.43099999 0.43196785 0.055490337 -0.50118726 0.66397595
-28.066 11.245 -0.42899999 0.43728459 0.036605589 -0.51500195 0.67659795
-28.068001 11.143 -0.428 0.42795238 0.061888821 -0.4437488 0.61958569
-28.125 11.22 -0.58499998 0.42279872 0.073258929 -0.54070669 0.69028211
-28.072001 11.098 -0.58200002 0.44672105 -0.0062417611 -0.52956474 0.69284737
-28.181999 11.038 -0.58499998 0.44672105 -0.0062417611 -0.52956474 0.69284737
-28.183001 11.238 -0.76700002 0.40774414 0.067840032 -0.62339795 0.74798566
