# .PCD v0.7 - Point Cloud Data file format
VERSION 0.7
FIELDS x y z normal_x normal_y normal_z curvature
SIZE 4 4 4 4 4 4 4
TYPE F F F F F F F
COUNT 1 1 1 1 1 1 1
WIDTH 655
HEIGHT 1
VIEWPOINT 0 0 0 1 0 0 0
POINTS 655
DATA ascii
6.2810001 8.5349998 -0.26800001 0.19899344 0.54602593 -0.49350578 0.76242423
6.237 8.5310001 -0.266 0.22266498 0.54018104 -0.48978022 0.76240402
6.2010002 8.5380001 -0.266 0.23566882 0.53694028 -0.49054557 0.76451266
6.1609998 8.5389996 -0.26499999 0.28131658 0.5226236 -0.48578134 0.76697975
6.1220002 8.5419998 -0.264 0.32155636 0.50388902 -0.49249971 0.77450538
6.079 8.5389996 -0.26300001 0.35650966 0.48571235 -0.49287 0.7784192
6.0430002 8.5450001 -0.26199999 0.42513004 0.43716621 -0.48993871 0.78223383
6.013 8.5310001 -0.26100001 0.43542555 0.42844874 -0.48956731 0.78284091
5.9959998 8.5629997 -0.26100001 0.48513487 0.3784793 -0.49549541 0.79001147
5.993 8.6169996 -0.26300001 0.52992034 0.31856391 -0.4920367 0.79018897
5.9990001 8.6829996 -0.266 0.56796628 0.24434495 -0.49046791 0.78920776
5.9959998 8.7379999 -0.26800001 0.58659112 0.19625267 -0.48391229 0.78535044
6.0040002 8.8079996 -0.271 0.59847921 0.14028397 -0.48602539 0.78363103
5.9920001 8.8500004 -0.27200001 0.60302913 0.10969675 -0.48338413 0.78060091
6.0079999 8.9040003 -0.27399999 0.60714942 0.090750143 -0.48166046 0.78029662
6.0120001 8.9689999 -0.27700001 0.60783476 0.059334405 -0.48119214 0.77751499
6.007 9.0229998 -0.27900001 0.61240941 0.055998001 -0.47954202 0.77983433
6.0009999 9.0749998 -0.28 0.61643726 0.060595598 -0.47734529 0.78200078
6.0029998 9.1400003 -0.28299999 0.61668092 0.064244464 -0.47976932 0.78396511
6 9.1990004 -0.285 0.60722089 0.072850786 -0.48068911 0.77787304
5.9980001 9.2580004 -0.287 0.60976833 0.078394964 -0.48024863 0.78012943
6.0110002 9.3109999 -0.289 0.59985387 0.089083277 -0.4803445 0.77362221
6.006 9.3669996 -0.29100001 0.59835249 0.091421612 -0.4811503 0.773233
6.0040002 9.4300003 -0.294 0.59272885 0.087807931 -0.48167342 0.76879579
6.013 9.5089998 -0.29699999 0.58969229 0.075715832 -0.47741678 0.76249373
6.0339999 9.6070004 -0.301 0.58962995 0.06098114 -0.47989613 0.76268107
5.9809999 9.5909996 -0.29899999 0.59417254 0.076880805 -0.47466081 0.76436543
7.8870001 12.72 -0.46200001 0.1302236 0.58523852 -0.49459463 0.77722979
7.8559999 12.714 -0.461 0.12874661 0.57686633 -0.49957302 0.77390158
7.8010001 12.715 -0.46000001 0.1288206 0.57189709 -0.50171727 0.77160954
7.7540002 12.727 -0.45899999 0.12893112 0.57541448 -0.50092816 0.77372742
7.6960001 12.723 -0.458 0.12308168 0.56194264 -0.51006508 0.76882702
7.6350002 12.711 -0.456 0.1186275 0.56419396 -0.51324666 0.77188689
7.585 12.719 -0.45500001 0.12129851 0.5594238 -0.5112502 0.76749271
7.5300002 12.717 -0.454 0.12676914 0.55924052 -0.51422715 0.77022719
7.4959998 12.705 -0.45300001 0.11724652 0.55202329 -0.52014965 0.76748425
7.4489999 12.717 -0.45199999 0.1152674 0.54566467 -0.52025598 0.76269448
7.3969998 12.719 -0.45100001 0.099819593 0.53788626 -0.52766675 0.76007748
7.3449998 12.722 -0.44999999 0.10573407 0.5365867 -0.52060789 0.75507456
7.2919998 12.722 -0.449 0.1116998 0.53732789 -0.52108192 0.75678563
7.2340002 12.714 -0.447 0.11331067 0.53727764 -0.52161735 0.75735807
7.184 12.719 -0.44600001 0.10949456 0.53740758 -0.5200485 0.75580841
7.1399999 12.735 -0.44600001 0.10967454 0.53844172 -0.51775873 0.75499809
7.1040001 12.718 -0.44400001 0.11456971 0.54021925 -0.51538521 0.75537074
7.053 12.719 -0.44299999 0.11697874 0.53383565 -0.51505691 0.75096482
7.0009999 12.72 -0.442 0.11782534 0.53385073 -0.51462829 0.75081402
6.9520001 12.725 -0.44100001 0.1141064 0.53398073 -0.51240325 0.74880761
6.901 12.727 -0.44 0.12314449 0.53408939 -0.50975817 0.74851149
6.8530002 12.735 -0.44 0.12779741 0.53272784 -0.51145989 0.74948138
6.796 12.724 -0.43799999 0.097076371 0.5285753 -0.51652986 0.7453984
6.763 12.71 -0.43700001 0.09023615 0.52476281 -0.51938844 0.74382991
6.717 12.719 -0.43599999 0.071700826 0.52119142 -0.52284998 0.74172342
6.6700001 12.728 -0.43599999 0.061768275 0.5181374 -0.52574861 0.74073833
6.3210001 12.25 -0.41 0.29474008 0.43666366 -0.5344131 0.75042939
6.2750001 12.255 -0.40900001 0.36298743 0.39657342 -0.52112883 0.74873596
6.2259998 12.256 -0.40799999 0.37740684 0.37091452 -0.49083823 0.72175872
6.2030001 12.258 -0.40700001 0.40412626 0.35513297 -0.50943208 0.74091733
6.152 12.253 -0.40599999 0.43520054 0.34051749 -0.5143007 0.75488865
6.1090002 12.263 -0.40599999 0.45986742 0.30964273 -0.50623065 0.75075036
6.0370002 12.214 -0.40200001 0.43039498 0.33593079 -0.50802082 0.74577105
6.027 12.29 -0.405 0.49881878 0.26652542 -0.49542677 0.75186682
6.0229998 12.381 -0.40900001 0.53953952 0.19932441 -0.48891214 0.75489616
6.02 12.474 -0.412 0.54991609 0.15830547 -0.514171 0.76931149
6.039 12.562 -0.41600001 0.54678339 0.11490987 -0.51297444 0.75849795
6.0359998 12.659 -0.41999999 0.54435211 0.02973881 -0.50374115 0.74226594
6.0409999 12.771 -0.42500001 0.54137468 0.013826165 -0.50013548 0.73716569
6.0370002 12.866 -0.42899999 0.55048954 0.030076236 -0.49974197 0.74410039
6.0349998 12.968 -0.433 0.54681987 0.015295468 -0.50069624 0.74158114
6.0339999 13.072 -0.43700001 0.55938238 0.021714073 -0.49656081 0.74829996
6.0279999 13.168 -0.44100001 0.5719409 0.034269348 -0.49652797 0.75817597
6.0549998 13.281 -0.44600001 0.57116503 0.024011482 -0.48884165 0.75217831
6.0370002 13.352 -0.44800001 0.57395613 0.014516235 -0.48635498 0.75244772
7.5289998 16.775999 -0.61400002 -0.38523039 0.50990933 0.23189071 0.67984062
7.4790001 16.806999 -0.61500001 -0.37990716 0.51688665 0.23915845 0.68461525
7.4109998 16.795 -0.61299998 -0.38684309 0.51675355 0.23244062 0.68608338
7.349 16.799 -0.61199999 -0.38123527 0.51674795 0.23382352 0.68340486
7.2859998 16.798 -0.611 -0.38166082 0.51501203 0.24198747 0.68517172
7.2529998 16.792999 -0.61000001 -0.38312906 0.51504791 0.24182682 0.68596095
7.1880002 16.788 -0.60900003 -0.38317677 0.51240832 0.24804606 0.68623143
7.1259999 16.788 -0.60799998 -0.40060529 0.51315749 0.25210008 0.69811863
7.0679998 16.799999 -0.60699999 -0.41634047 0.50722927 0.24885604 0.70181924
7.0050001 16.796 -0.60600001 -0.42463961 0.50700295 0.24864703 0.70653814
6.9499998 16.812 -0.60600001 -0.42269576 0.50748914 0.25428471 0.70772713
6.882 16.797001 -0.60399997 -0.41163877 0.5137645 0.2746253 0.71331584
6.8369999 16.763 -0.602 0.28933352 0.48413178 -0.40474275 0.6942004
6.7779999 16.768 -0.60100001 0.27415243 0.48056647 -0.41971105 0.69445014
6.7179999 16.771 -0.60000002 0.23343658 0.47818953 -0.45756203 0.70179832
6.4450002 16.240999 -0.574 0.15135878 0.51312625 -0.48810947 0.72419536
6.3080001 16.042999 -0.56300002 0.16109551 0.51971442 -0.50072622 0.73944676
6.25 16.042999 -0.56199998 0.33584797 0.48480102 -0.54014224 0.79973716
6.191 16.042 -0.56099999 0.44206047 0.41967356 -0.53009135 0.80779964
6.1669998 16.052999 -0.56099999 0.46029508 0.406901 -0.52327847 0.80700701
6.1100001 16.056 -0.56 0.46029508 0.406901 -0.52327847 0.80700701
6.0669999 16.094999 -0.56099999 0.56596839 0.27626523 -0.51395768 0.81289309
6.0679998 16.250999 -0.56800002 0.62984526 0.16355358 -0.51183355 0.82790601
6.0619998 16.392 -0.574 0.66138327 0.075301476 -0.47867018 0.81989223
6.0640001 16.555 -0.58099997 0.6537531 0.026462479 -0.46598259 0.80326408
6.0630002 16.715 -0.58700001 0.67624974 0.032962646 -0.45668921 0.81667942
6.085 16.858 -0.59399998 0.67456508 0.025278656 -0.46040505 0.81709844
6.085 17.023001 -0.60000002 0.66320556 0.021138303 -0.46290255 0.8090533
8.4209995 23.763 -0.91799998 -0.42204764 0.58020031 0.078051731 0.72169846
8.3369999 23.764999 -0.917 -0.42283478 0.58768189 0.040046278 0.72509509
8.2550001 23.77 -0.91600001 -0.44085774 0.59014666 0.037628416 0.73759371
8.1730003 23.775999 -0.91500002 -0.44247824 0.59267753 0.019220397 0.73988044
8.092 23.780001 -0.91399997 -0.47690156 0.5718202 -0.19399922 0.76944727
8.0469999 23.771999 -0.91299999 -0.48860103 0.57609344 -0.18112525 0.77680176
7.9650002 23.775999 -0.912 -0.47095728 0.57993364 -0.16664158 0.76543659
7.8839998 23.781 -0.91100001 -0.50221485 0.59387881 -0.055904698 0.77976733
7.8010001 23.782 -0.91000003 -0.5205344 0.59354925 -0.020057254 0.78972089
7.717 23.775999 -0.90799999 -0.52478665 0.59524721 -0.092135094 0.79887992
7.6339998 23.774 -0.90700001 -0.60239005 0.58195168 -0.10157083 0.84371686
7.5359998 23.726999 -0.90399998 -0.63960111 0.57119924 -0.10409423 0.86382508
7.3899999 23.521999 -0.89300001 -0.66783178 0.55817664 -0.12945621 0.87995416
7.421 23.753 -0.903 -0.56545347 0.58127207 -0.14062378 0.82303697
6.2880001 20.59 -0.75400001 0.58036798 -0.092752978 -0.51378584 0.7806446
6.2849998 20.813999 -0.76300001 0.59146833 -0.084217563 -0.45315877 0.74985349
7.0640001 23.650999 -0.89399999 -0.7146275 0.54346669 -0.0961155 0.90293229
6.9239998 23.448999 -0.884 -0.57571101 0.60455656 -0.069046199 0.83767486
6.8390002 23.434 -0.88200003 -0.53914928 0.60979664 -0.073420674 0.81726646
6.802 23.443001 -0.88200003 -0.50659072 0.61358213 -0.062243827 0.79811746
6.7210002 23.438999 -0.88099998 -0.46049494 0.61398339 -0.056142278 0.76953435
6.6420002 23.441 -0.88 -0.40055668 0.60757214 -0.052669469 0.7296325
6.5419998 23.368 -0.87599999 -0.4523783 0.57799613 -0.080393337 0.73836899
6.5089998 23.534 -0.88200003 -0.099944115 0.40986001 -0.023487404 0.42252302
6.5050001 23.809 -0.89399999 0.42249325 0.22014003 -0.4958199 0.68760419
6.4190001 23.791 -0.89200002 0.56008321 0.2246206 -0.48484927 0.77409714
17.851 8.2819996 -0.78500003 0.045730218 0.1259023 0.31320331 0.3406449
17.747 8.302 -0.77999997 -0.031819925 0.8678109 -0.35230875 0.93713909
17.612 8.3059998 -0.77399999 -0.026559964 0.84759724 -0.37451264 0.92703086
17.500999 8.3210001 -0.76999998 -0.018852305 0.84568685 -0.37714547 0.92616433
17.371 8.3260002 -0.764 -0.011353908 0.82813811 -0.39757624 0.91869938
17.259001 8.3050003 -0.75800002 -0.0012369687 0.81791562 -0.40928894 0.91460645
17.132 8.3100004 -0.75300002 0.099172316 0.80761206 -0.40349469 0.90822923
17.004999 8.3149996 -0.74699998 0.1644343 0.77471894 -0.37396616 0.87583035
16.893 8.3260002 -0.74199998 0.24425881 0.72699505 -0.39867559 0.86436468
16.872 8.382 -0.74299997 0.24305339 0.72775376 -0.40627953 0.86819559
16.848 8.4350004 -0.74299997 0.22787257 0.73041451 -0.42899892 0.87719518
16.812 8.4840002 -0.74199998 0.23173916 0.72792387 -0.44178405 0.88246775
16.788 8.5050001 -0.74199998 0.2413124 0.71188712 -0.46586177 0.88433141
16.924999 8.6409998 -0.75099999 0.30055377 0.68873411 -0.47566286 0.88934946
16.599001 8.54 -0.73400003 0.098256893 0.75831473 -0.44916278 0.88681608
16.466 8.5369997 -0.72799999 0.068913035 0.75901091 -0.44123366 0.8806439
16.337999 8.5360003 -0.722 0.01594181 0.76744437 -0.43125638 0.88045841
16.221001 8.54 -0.71700001 0.0026472602 0.76618183 -0.42712525 0.87719876
16.101 8.5410004 -0.71200001 0.0057843719 0.76378977 -0.47986946 0.90204376
15.998 8.5179996 -0.70700002 -0.013081942 0.76233584 -0.4828034 0.90245563
15.953 8.559 -0.70599997 -0.026750196 0.75455797 -0.48951691 0.89983338
16.841 9.1049995 -0.75800002 0.50534207 0.22799854 -0.42677444 0.69963586
16.837 9.1709995 -0.759 0.50524765 0.22647527 -0.39565176 0.68051934
16.833 9.2379999 -0.76099998 0.50595266 0.23179099 -0.39941838 0.68501842
16.816 9.2969999 -0.76099998 0.50949132 0.23571299 -0.39500028 0.68641621
16.82 9.3690004 -0.76300001 0.50874263 0.27274662 -0.42896962 0.71918339
15.006 8.5109997 -0.66299999 -0.2634477 0.64956665 -0.45519671 0.8357904
14.938 8.5340004 -0.66000003 -0.093676455 0.71959352 -0.41985333 0.83837157
14.776 8.5030003 -0.653 0.076109551 0.73050904 -0.47362363 0.87393105
16.833 9.7609997 -0.77399999 0.50902933 0.28044379 -0.42161244 0.71799487
16.832001 9.8310003 -0.77499998 0.51569211 0.28359124 -0.41363978 0.71934706
16.856001 9.8809996 -0.778 0.51577646 0.29819676 -0.41187671 0.72428519
16.83 9.9370003 -0.778 0.51553738 0.29790062 -0.40666825 0.72104275
14.071 8.3629999 -0.61799997 0.037208673 0.72385943 -0.46374881 0.86047655
13.979 8.368 -0.61500001 0.039718296 0.72347641 -0.46488032 0.8608771
13.907 8.3839998 -0.61199999 0.038840301 0.72134185 -0.47352016 0.86374998
13.797 8.3769999 -0.60699999 0.033128701 0.72185218 -0.47411323 0.86426353
13.726 8.3929996 -0.60399997 0.036243945 0.72242337 -0.48643163 0.87167937
13.625 8.3599997 -0.59899998 0.031754695 0.72387266 -0.46977535 0.86353278
13.561 8.3789997 -0.597 0.03682474 0.72559386 -0.47083285 0.86575174
13.469 8.3809996 -0.59299999 0.090040572 0.71871239 -0.45730248 0.85660982
13.395 8.3929996 -0.58999997 0.15463088 0.70721954 -0.43153074 0.84278643
13.294 8.3879995 -0.58600003 0.19808203 0.68259591 -0.43401811 0.83279371
13.214 8.3959999 -0.583 0.24371664 0.66196704 -0.46694368 0.84595186
13.152 8.4139996 -0.58099997 0.30263811 0.61420429 -0.47919896 0.8357442
13.188 8.4659996 -0.583 0.33176351 0.59996367 -0.48721623 0.84107256
13.166 8.5109997 -0.58399999 0.42073733 0.50596952 -0.49169227 0.82145381
13.152 8.5609999 -0.58499998 0.50676823 0.32543981 -0.47981504 0.77003092
13.114 8.5950003 -0.58399999 0.52952766 0.18143372 -0.47990942 0.73731321
13.113 8.6540003 -0.58499998 0.52338213 0.12476999 -0.49851575 0.73349464
13.286 8.8280001 -0.59799999 0.48534209 0.017929584 -0.477137 0.68083632
13.273 8.8789997 -0.59799999 0.48317575 -0.0017028451 -0.48533413 0.68484372
13.867 9.3100004 -0.63499999 0.51988941 0.16322112 -0.5087499 0.74548817
13.869 9.375 -0.63700002 0.52184999 0.17945787 -0.51016998 0.75153571
13.861 9.4329996 -0.63800001 0.52339065 0.18967032 -0.5075227 0.75332057
13.869 9.5019999 -0.64099997 0.52952665 0.22214919 -0.50667119 0.76580966
13.85 9.5539999 -0.64099997 0.52884686 0.24256946 -0.51561558 0.77741778
13.868 9.6300001 -0.64399999 0.52922732 0.25221869 -0.51380783 0.77954751
13.846 9.6800003 -0.64499998 0.53138173 0.24050209 -0.5168857 0.77934498
13.793 9.6750002 -0.64300001 0.52724594 0.24422802 -0.51958019 0.77948648
13.801 10.241 -0.65899998 0.51776499 0.088088088 -0.5817619 0.78376466
13.799 10.307 -0.66100001 0.51731843 0.085244745 -0.58436841 0.78509325
13.801 10.377 -0.66399997 0.51743585 0.066494644 -0.58651531 0.78495961
13.796 10.441 -0.66500002 0.51734418 0.093621686 -0.58428454 0.78600156
13.798 10.511 -0.66799998 0.51463079 0.093549475 -0.58140814 0.78206891
13.819 10.562 -0.67000002 0.51559955 0.094162025 -0.57608759 0.77883649
13.802 10.617 -0.671 0.51909381 0.076960191 -0.57252872 0.77664047
13.808 10.691 -0.67299998 0.50399649 0.056434825 -0.59213626 0.77962989
13.81 10.763 -0.676 0.50479269 0.051897816 -0.5906713 0.77871794
13.805 10.828 -0.67799997 0.5003888 -0.0053759553 -0.59414071 0.77680182
13.811 10.904 -0.68000001 0.49864262 -0.022123169 -0.59492916 0.77657878
13.829 10.988 -0.68300003 0.49764267 -0.025169421 -0.59902579 0.77917492
10.52 8.4320002 -0.47400001 0.052886244 0.53333938 -0.50580025 0.7369408
10.464 8.441 -0.472 0.065143876 0.53100693 -0.50549918 0.73603088
10.394 8.4390001 -0.46900001 0.068458997 0.53231114 -0.50575954 0.73745137
10.335 8.4449997 -0.46700001 0.07328935 0.53222507 -0.50713426 0.73879629
10.279 8.4530001 -0.465 0.072005384 0.53131044 -0.50794065 0.73856568
10.211 8.4510002 -0.46200001 0.081935838 0.52343357 -0.50891763 0.73463827
10.174 8.448 -0.461 0.079268783 0.52360743 -0.5100829 0.73527741
10.111 8.4490004 -0.458 0.077063791 0.52665234 -0.50985426 0.73705691
10.048 8.4499998 -0.456 0.062727734 0.53121716 -0.50848347 0.73802567
9.9820004 8.448 -0.45300001 0.068813749 0.53034139 -0.51027125 0.73917121
9.9399996 8.4659996 -0.45199999 0.090298548 0.5228107 -0.5123387 0.73754716
9.8690004 8.4589996 -0.449 0.12294397 0.52193892 -0.51530457 0.7436896
9.8109999 8.4630003 -0.447 0.14216359 0.52386713 -0.52040869 0.75197905
9.7709999 8.4549999 -0.44499999 0.1606289 0.52000153 -0.51200652 0.74723089
9.7110004 8.4560003 -0.44299999 0.21420914 0.50193524 -0.51280373 0.7488606
9.651 8.4580002 -0.44100001 0.26998496 0.47385585 -0.52376038 0.7561456
9.5749998 8.4440002 -0.43799999 0.31874067 0.4502224 -0.50885314 0.75048476
9.5340004 8.4610004 -0.43700001 0.42779762 0.35974064 -0.51618499 0.76083577
9.5679998 8.5459995 -0.44100001 0.49503246 0.25675917 -0.49758282 0.74737614
9.5690002 8.6009998 -0.44299999 0.51005608 0.21604648 -0.5022617 0.74772996
9.5830002 8.6400003 -0.44499999 0.5163424 0.19525138 -0.50152308 0.74582702
9.5830002 8.6960001 -0.44600001 0.53217363 0.14242211 -0.50041312 0.74424869
9.599 8.7650003 -0.449 0.5404126 0.10637 -0.4948197 0.74040997
9.5769997 8.8009996 -0.44999999 0.53823471 0.11815291 -0.49526429 0.74090713
9.5869999 8.8660002 -0.45199999 0.54638261 0.004249759 -0.49511659 0.73735505
9.5860004 8.9209995 -0.454 0.54365033 -0.013303962 -0.51947886 0.75205779
9.8170004 9.165 -0.47099999 0.47872597 -0.17930941 -0.4999589 0.71504498
9.8199997 9.2259998 -0.47299999 0.48378232 -0.17398167 -0.49766961 0.71553475
9.8310003 9.2959995 -0.47600001 0.52232391 -0.053709991 -0.50489914 0.72844368
9.8120003 9.3360004 -0.477 0.52461153 -0.06492433 -0.50193173 0.72894984
9.823 9.4060001 -0.479 0.53063363 -0.026661839 -0.49115306 0.72354281
9.8249998 9.467 -0.48199999 0.53045428 -0.017205913 -0.48825285 0.72115785
10.226 9.9169998 -0.51200002 0.14059359 0.53579086 -0.50416094 0.74901044
10.232 9.9860001 -0.514 0.15783115 0.56238705 -0.47458863 0.75261164
10.204 9.9890003 -0.514 0.13705692 0.55752426 -0.45871294 0.73487103
10.134 9.9829998 -0.51099998 0.13330352 0.55700517 -0.44517317 0.72539902
10.066 9.9779997 -0.50800002 0.12668097 0.55758315 -0.44203433 0.72273189
10.012 9.9870005 -0.50700003 0.18913792 0.55432004 -0.42192936 0.72185057
9.9460001 9.9849997 -0.50400001 0.21833858 0.52131122 -0.41503763 0.70120847
9.8920002 9.993 -0.50300002 0.283317 0.50209528 -0.42737514 0.71764731
9.8260002 9.9879999 -0.5 0.21407685 0.52145702 -0.44689253 0.7193464
9.8660002 10.061 -0.50400001 0.40120739 0.41507006 -0.43889263 0.72517395
10.299 10.571 -0.53799999 0.49245816 -0.15442646 -0.64195776 0.82369435
10.297 10.635 -0.54000002 0.50575489 -0.092149727 -0.68212944 0.85415465
10.306 10.712 -0.54299998 0.53606069 -0.050164472 -0.64289093 0.83856201
10.297 10.77 -0.54500002 0.50450563 -0.029224146 -0.71804482 0.87804806
10.31 10.851 -0.54799998 0.565539 0.031664472 -0.53968215 0.78236425
10.294 10.903 -0.54900002 0.51426619 0.054566957 -0.71815443 0.88498193
10.315 10.96 -0.55199999 0.55061603 0.099082261 -0.62249863 0.83695871
10.305 11.018 -0.55400002 0.52432692 0.13143776 -0.67381883 0.86384398
10.3 11.083 -0.55599999 0.48902026 0.19927764 -0.71872163 0.89185935
10.304 11.158 -0.55900002 0.47137022 0.2813178 -0.69785589 0.88788086
10.311 11.236 -0.56199998 0.43356639 0.36130777 -0.67371207 0.87886924
10.266 11.258 -0.56199998 0.39306888 0.41753191 -0.65225077 0.86848551
10.205 11.262 -0.56 0.34786898 0.4745121 -0.60672849 0.84515917
10.16 11.247 -0.55800003 0.35715196 0.45910043 -0.62325966 0.85251588
10.095 11.246 -0.55500001 0.37539473 0.44375119 -0.61032891 0.84281534
10.042 11.258 -0.55400002 0.37974501 0.44457924 -0.59769887 0.83612257
9.9790001 11.258 -0.55199999 0.40604722 0.41024658 -0.59044451 0.82571262
9.9329996 11.277 -0.551 0.46273196 0.33418137 -0.54931736 0.79217905
9.8669996 11.274 -0.54900002 0.50610626 0.24948093 -0.53361756 0.77661574
9.8540001 11.331 -0.551 0.51538873 0.25332946 -0.5146206 0.77112627
7.368 8.4890003 -0.361 0.43235084 0.36122438 -0.64714444 0.8580246
7.323 8.4910002 -0.36000001 0.094476871 0.53519547 -0.51974142 0.75199151
9.8760004 11.538 -0.55900002 0.53866547 0.16855466 -0.49692309 0.7519998
9.8789997 11.615 -0.56199998 0.55266082 0.13317962 -0.49038601 0.75076574
9.8730001 11.683 -0.565 0.54759419 0.076510474 -0.48641372 0.73641807
9.8620005 11.744 -0.56699997 0.55835491 0.088646695 -0.48282996 0.74346703
9.8739996 11.833 -0.56999999 0.56525373 0.077019319 -0.48385954 0.74803996
9.8929996 11.895 -0.57300001 0.5731594 0.077263772 -0.48181126 0.75274396
6.9050002 8.5050001 -0.347 0.10205453 0.53825372 -0.51037771 0.74874401
6.8610001 8.5050001 -0.345 0.105222 0.53829968 -0.50786901 0.74750865
6.8200002 8.5100002 -0.34400001 0.099064089 0.54515481 -0.5060358 0.75038636
6.796 8.5059996 -0.34299999 0.10757197 0.54474097 -0.50479162 0.7504192
6.743 8.4949999 -0.34099999 0.10677801 0.54480672 -0.50329655 0.74934858
6.7090001 8.5059996 -0.34099999 0.11804359 0.54663503 -0.50377917 0.75268692
6.665 8.5050001 -0.33899999 0.11080687 0.54704112 -0.5005368 0.74971271
6.631 8.5170002 -0.33899999 0.11350229 0.54687846 -0.50359696 0.75204307
6.5869999 8.5150003 -0.33700001 0.11568595 0.54702514 -0.5024038 0.75168431
6.5510001 8.5249996 -0.33700001 0.11854745 0.54379314 -0.50509286 0.75158715
6.5190001 8.5100002 -0.33500001 0.11306732 0.54405528 -0.50257879 0.7492435
6.4809999 8.5159998 -0.33399999 0.11610208 0.54337084 -0.5030852 0.7495507
6.4380002 8.5139999 -0.333 0.11605575 0.54335141 -0.50311595 0.7495501
6.401 8.5209999 -0.33199999 0.11369476 0.54326349 -0.50507063 0.75043863
6.3540001 8.5139999 -0.33000001 0.12710722 0.5427475 -0.50327069 0.75100762
6.3260002 8.5319996 -0.33000001 0.14722376 0.54442525 -0.50289518 0.75563031
6.2800002 8.526 -0.32800001 0.19381437 0.54307204 -0.50315458 0.7652815
6.2470002 8.5089998 -0.32699999 0.1948784 0.54544067 -0.50575036 0.76893854
6.2059999 8.5089998 -0.32499999 0.23483153 0.53520191 -0.50584841 0.77296156
6.1680002 8.5120001 -0.324 0.25983918 0.52742469 -0.51495653 0.78158396
6.1300001 8.5170002 -0.324 0.2830438 0.51986766 -0.50144309 0.77577144
6.0939999 8.5229998 -0.32300001 0.33559409 0.49640045 -0.50971007 0.78666461
6.0549998 8.5240002 -0.322 0.35896963 0.4838869 -0.5056501 0.78656709
6.0180001 8.5290003 -0.32100001 0.41985944 0.44130135 -0.49727964 0.78633064
6 8.5310001 -0.31999999 0.44746944 0.41738999 -0.49911863 0.78965992
5.9990001 8.5880003 -0.32300001 0.49735016 0.36299288 -0.50110942 0.79387134
5.9910002 8.6350002 -0.324 0.53670496 0.30752444 -0.49270535 0.790811
5.9910002 8.6929998 -0.32699999 0.5765785 0.22185463 -0.49692145 0.79283869
5.9920001 8.7530003 -0.329 0.5896703 0.18571243 -0.48925745 0.78839904
5.9920001 8.8120003 -0.33199999 0.59870124 0.13652918 -0.48452848 0.78220922
5.9889998 8.8690004 -0.33399999 0.60445499 0.096005484 -0.48024273 0.77795625
6.006 8.9230003 -0.33700001 0.60939384 0.076449834 -0.47970343 0.7793079
6.0009999 8.9759998 -0.33899999 0.60695076 0.059744474 -0.47998184 0.77610642
6 9.0369997 -0.34099999 0.60976464 0.055624828 -0.48179826 0.77912551
6 9.099 -0.34400001 0.6117484 0.058910988 -0.48059744 0.7801798
5.9949999 9.1549997 -0.34599999 0.60495424 0.064219594 -0.48306096 0.77681506
5.9959998 9.2189999 -0.34900001 0.6072253 0.072664641 -0.48272219 0.77911705
5.9910002 9.2749996 -0.35100001 0.60555089 0.081543013 -0.48347521 0.77915943
6.0019999 9.3240004 -0.35299999 0.59986055 0.085420139 -0.48129484 0.7738049
6.0100002 9.4020004 -0.35699999 0.58895838 0.091241084 -0.48266599 0.76691812
6.013 9.4720001 -0.36000001 0.58828288 0.075317092 -0.48061126 0.76337188
6.0079999 9.5310001 -0.36199999 0.58831906 0.077172399 -0.48005617 0.76323575
5.947 9.4989996 -0.359 0.59754694 0.077310272 -0.47864634 0.76950729
7.8779998 12.69 -0.54699999 0.12888336 0.5789277 -0.49275747 0.77108896
7.8270001 12.695 -0.54500002 0.12893286 0.57649434 -0.50093949 0.77453846
7.776 12.701 -0.54400003 0.1199101 0.57207489 -0.50596023 0.77307427
7.7449999 12.696 -0.54299998 0.11252689 0.56640363 -0.52505308 0.7804845
7.6890001 12.693 -0.542 0.10619991 0.55521041 -0.52946562 0.7745133
7.6389999 12.7 -0.54100001 0.11371167 0.55540961 -0.52897632 0.77538776
7.579 12.692 -0.53899997 0.1097827 0.53980905 -0.54993856 0.77838194
7.5240002 12.69 -0.537 0.10377408 0.53955293 -0.55012083 0.77750844
7.467 12.684 -0.53600001 0.11313699 0.54108 -0.55139786 0.78077346
7.4190001 12.693 -0.53500003 0.10861759 0.53519732 -0.55255538 0.77688569
7.3909998 12.691 -0.53399998 0.11727417 0.53343356 -0.55139667 0.77610749
7.3390002 12.694 -0.53299999 0.11964864 0.53610736 -0.53445584 0.76640064
7.2820001 12.687 -0.53100002 0.12221454 0.53887361 -0.53144771 0.76665366
7.2360001 12.698 -0.52999997 0.11339491 0.53993142 -0.51978469 0.75799769
7.1900001 12.71 -0.52999997 0.11608801 0.53996807 -0.51890332 0.75782758
7.1360002 12.708 -0.528 0.11511187 0.5336467 -0.5181073 0.75263852
7.0780001 12.697 -0.52700001 0.11658733 0.53375024 -0.51647305 0.75181532
7.0440001 12.684 -0.52499998 0.11767726 0.53371817 -0.51692045 0.75226974
6.994 12.687 -0.52399999 0.11335642 0.53375483 -0.51623899 0.75116348
6.9439998 12.689 -0.523 0.11950302 0.53495336 -0.5119136 0.75000775
6.8990002 12.702 -0.52200001 0.11684525 0.53519273 -0.51372248 0.75099587
6.8470001 12.701 -0.52100003 0.11954814 0.53401488 -0.50919759 0.74749303
6.7950001 12.701 -0.51999998 0.093157865 0.52502608 -0.51386815 0.74053442
6.7410002 12.694 -0.51800001 0.057975836 0.52055353 -0.5305475 0.74553192
6.717 12.698 -0.51800001 0.051910549 0.51955235 -0.53037065 0.74425966
6.664 12.694 -0.51599997 0.042550623 0.52312464 -0.53295243 0.74800283
6.6079998 12.683 -0.51499999 0.042841703 0.523287 -0.53437936 0.74915022
6.3379998 12.258 -0.49000001 0.16806327 0.49453339 -0.51105851 0.73074573
6.2729998 12.226 -0.48699999 0.24048272 0.46892354 -0.52480966 0.74373811
6.1950002 12.167 -0.48199999 0.26108667 0.45701 -0.52674574 0.74463779
6.1739998 12.221 -0.484 0.37811029 0.38547975 -0.51404142 0.74552035
6.1550002 12.23 -0.484 0.39528987 0.36954126 -0.50882769 0.74277884
6.1160002 12.25 -0.484 0.45308465 0.31887734 -0.50014317 0.7463991
6.0650001 12.244 -0.48300001 0.45823139 0.31180131 -0.50837427 0.75209069
6.0320001 12.274 -0.48300001 0.47779796 0.273891 -0.50427765 0.7467283
6.0250001 12.357 -0.48699999 0.51992714 0.22394308 -0.50629163 0.75947744
6.0219998 12.45 -0.491 0.54581439 0.17494068 -0.50454378 0.76359808
6.0190001 12.544 -0.495 0.55477923 0.10052606 -0.49790826 0.75219554
6.04 12.64 -0.5 0.54422098 0.037711918 -0.4940756 0.73600906
6.0349998 12.733 -0.50400001 0.54435271 0.018028138 -0.49096182 0.73327237
6.0370002 12.841 -0.509 0.54285645 0.017960709 -0.49170804 0.73266125
6.0380001 12.949 -0.514 0.54632413 0.020558376 -0.49129036 0.73502308
6.033 13.046 -0.51800001 0.54861295 0.020293845 -0.48766407 0.73430526
6.0300002 13.148 -0.523 0.56328416 0.036984257 -0.4881641 0.74629825
6.0370002 13.274 -0.52899998 0.56714594 0.021663714 -0.48337561 0.74550372
6.0339999 13.322 -0.53100002 0.57489109 0.021457266 -0.48209044 0.75058067
7.5219998 16.764 -0.71899998 -0.36861697 0.5115115 0.23190907 0.67179185
7.4629998 16.773001 -0.71799999 -0.37664163 0.51563829 0.232467 0.67954594
7.4000001 16.774 -0.71700001 -0.3758119 0.52247643 0.2291559 0.68317538
7.3410001 16.783001 -0.71600002 -0.37247583 0.52364224 0.23867702 0.68549699
7.276 16.778 -0.71499997 -0.36809406 0.52035809 0.24734552 0.68369997
7.217 16.785999 -0.71399999 -0.38343382 0.51213294 0.24517518 0.68513685
7.1820002 16.775 -0.713 -0.38851371 0.51242328 0.24636726 0.6886344
7.125 16.789 -0.71200001 -0.39647847 0.51217723 0.24118176 0.69115072
7.0560002 16.771999 -0.70999998 -0.40607342 0.51299071 0.24885379 0.69998807
7.0029998 16.792999 -0.70999998 -0.41255459 0.51390195 0.26094934 0.70879549
6.9390001 16.789 -0.70899999 -0.40203214 0.52032745 0.28150651 0.71527368
6.8790002 16.792 -0.708 -0.43223497 0.51789778 0.27245393 0.72751385
6.8039999 16.76 -0.70499998 0.26409209 0.47384486 -0.41491571 0.6829558
6.7729998 16.759001 -0.704 0.25392061 0.47225818 -0.41379702 0.67729717
6.7069998 16.747 -0.70200002 0.17614704 0.47169426 -0.45795247 0.68062013
6.4349999 16.212999 -0.67199999 0.44436693 0.44551229 -0.6026777 0.87129992
6.303 16.025999 -0.66100001 0.17013796 0.50917226 -0.56032538 0.77599472
6.2389998 16.011 -0.65899998 0.30321294 0.49291623 -0.54044169 0.79182178
6.1799998 16.007999 -0.65799999 0.45534217 0.40560746 -0.55501634 0.82455873
6.1350002 16.040001 -0.65899998 0.49699 0.36934698 -0.55671239 0.83267337
6.118 16.072001 -0.66000003 0.49699 0.36934698 -0.55671239 0.83267337
6.0650001 16.084 -0.66000003 0.55391663 0.27979851 -0.53861362 0.82171494
6.0710001 16.254999 -0.66799998 0.62478644 0.17462021 -0.50591427 0.82267833
6.0580001 16.377001 -0.67299998 0.65937388 0.061263312 -0.48679793 0.82188767
6.0609999 16.546 -0.68099999 0.6553157 0.025968224 -0.48524594 0.8158288
6.0609999 16.707001 -0.68900001 0.66459554 0.012289192 -0.48014528 0.81998646
6.0549998 16.858 -0.69599998 0.66631985 0.032824401 -0.47436115 0.81858301
6.0570002 17.031 -0.704 0.66307569 -0.011312974 -0.44801444 0.80032134
8.2270002 23.278999 -1.036 -0.48145339 0.12723601 0.4762308 0.68904436
8.1820002 23.384001 -1.04 -0.48145339 0.12723601 0.4762308 0.68904436
8.0979996 23.381001 -1.039 -0.48145339 0.12723601 0.4762308 0.68904436
8.0290003 23.417999 -1.04 -0.51674139 -0.044782922 0.45433348 0.68952596
7.9320002 23.372999 -1.036 -0.48056099 0.12764922 0.47341272 0.68655139
7.7550001 23.089001 -1.0190001 -0.54893005 0.10248575 0.4795773 0.73608553
7.5430002 22.694 -0.99699998 -0.075802565 0.10705049 -0.29444438 0.3223404
7.5349998 22.789 -1.002 -0.85489857 0.11774477 0.32942119 0.92370647
7.5469999 23.069 -1.015 -0.82436335 0.13657272 0.35254523 0.90692621
7.566 23.375999 -1.03 -0.13054171 0.21674052 -0.3558875 0.43666178
7.6020002 23.742001 -1.048 -0.60838789 0.56134927 -0.17844643 0.84681284
7.369 23.521 -1.034 -0.58184862 0.568174 -0.18387949 0.83377528
7.3569999 23.743999 -1.045 -0.54757255 0.56817561 -0.19226424 0.81217289
6.335 20.548 -0.87599999 0.59950638 -0.031490006 -0.57159019 0.82892388
6.3130002 20.709 -0.884 0.59204429 -0.1002655 -0.51244926 0.78941363
6.1900001 20.537001 -0.87400001 0.58192444 -0.10863157 -0.49806073 0.77362871
6.9920001 23.476999 -1.026 -0.62978399 0.5949567 -0.027671386 0.86681432
6.9000001 23.436001 -1.023 -0.65416598 0.57930923 -0.031142617 0.87435812
6.8150001 23.419001 -1.021 -0.52457911 0.60610539 -0.038874917 0.80253237
6.7350001 23.417 -1.02 -0.48289105 0.60196275 -0.036682524 0.77258557
6.6960001 23.422001 -1.02 -0.43240845 0.5991379 -0.022461353 0.7392211
6.6129999 23.408001 -1.018 -0.32929331 0.57602948 -0.0054940982 0.66353166
6.5190001 23.356001 -1.0140001 -0.42303729 0.57657492 -0.05583242 0.71729803
6.5159998 23.632 -1.027 0.69235301 0.29081246 -0.41246831 0.85676992
6.4749999 23.775999 -1.034 0.53934067 0.27500325 -0.51089728 0.79216868
6.3920002 23.763 -1.0319999 0.50053984 0.2791025 -0.51853842 0.77286506
6.3130002 23.768 -1.031 0.4009411 0.37656176 -0.51292986 0.75209677
17.795 8.283 -0.90700001 -0.040493466 0.86813068 -0.33777902 0.93240833
17.657 8.2869997 -0.89999998 -0.029724937 0.85746306 -0.34568506 0.92499983
17.52 8.29 -0.89300001 -0.014526792 0.84798676 -0.35440385 0.91918147
17.402 8.3009996 -0.88700002 -0.0054715658 0.82849157 -0.37379408 0.90892804
17.278999 8.309 -0.88099998 -0.0060280897 0.82213819 -0.38312078 0.90704411
17.155001 8.3170004 -0.875 0.081468731 0.80899823 -0.35821903 0.88850218
17.049 8.2980003 -0.86900002 0.14876579 0.7889421 -0.35597077 0.87822324
16.921 8.302 -0.86299998 0.21655354 0.74075186 -0.38846511 0.86401033
16.85 8.3330002 -0.86000001 0.23016417 0.72422588 -0.42208993 0.86927474
16.847 8.3970003 -0.861 0.2285708 0.72346425 -0.43166649 0.87291533
16.827 8.4540005 -0.86199999 0.21980119 0.72293407 -0.44205275 0.87541807
16.790001 8.5010004 -0.861 0.22363973 0.72237837 -0.44870889 0.87930936
16.950001 8.6490002 -0.87300003 0.2675634 0.71593225 -0.42641842 0.87520391
16.622 8.5150003 -0.85299999 0.10193668 0.74635518 -0.48306561 0.89486843
16.513 8.5249996 -0.84799999 0.093239106 0.75589943 -0.42819908 0.87374592
16.391001 8.5270004 -0.84200001 0.0059805019 0.76545644 -0.39684194 0.86223131
16.268 8.5290003 -0.83600003 0.013090014 0.76670313 -0.42650825 0.87744761
16.129999 8.5209999 -0.829 -0.015482172 0.76473278 -0.42958108 0.87726611
16.000999 8.5179996 -0.82200003 0.0056752739 0.76021683 -0.4347479 0.87576681
15.891 8.5240002 -0.81699997 -0.0076193223 0.74843776 -0.43956125 0.8680042
16.830999 9.0600004 -0.87800002 0.51092237 0.24947894 -0.4107776 0.70144111
16.84 9.1330004 -0.88 0.50737238 0.24637997 -0.41834959 0.70224369
16.832001 9.1969995 -0.88200003 0.51080382 0.26599732 -0.44215593 0.72606951
16.837999 9.2690001 -0.884 0.50748634 0.26485527 -0.4428761 0.72376096
16.83 9.3339996 -0.88499999 0.50104547 0.25740805 -0.45058781 0.72134238
16.823 9.3990002 -0.88700002 0.50425333 0.26602861 -0.4406583 0.72057086
16.827 9.4709997 -0.889 0.50475794 0.2694155 -0.43422544 0.71827364
16.823999 9.5039997 -0.88999999 0.50493264 0.26375332 -0.42400077 0.71014047
14.956 8.5139999 -0.76999998 -0.071668617 0.71711457 -0.34886301 0.80068415
14.827 8.5030003 -0.764 -0.018556422 0.72115755 -0.33839956 0.79682297
16.846001 9.7270002 -0.89700001 0.51206923 0.26999703 -0.41699472 0.71344084
16.827 9.7869997 -0.898 0.51923281 0.27999958 -0.40471706 0.71540087
14.607 8.5609999 -0.75400001 0.099467568 0.73173636 -0.44152147 0.86039126
14.495 8.5570002 -0.74900001 0.15897714 0.72066844 -0.44312078 0.86080933
14.08 8.342 -0.722 0.040402755 0.72373044 -0.46518955 0.86128944
13.986 8.3459997 -0.71799999 0.029912861 0.72403151 -0.46147299 0.85911214
13.902 8.3549995 -0.71399999 0.035722829 0.72238922 -0.4587931 0.85651237
13.812 8.3610001 -0.70999998 0.026620708 0.72253692 -0.46075585 0.85735887
13.728 8.3690004 -0.70599997 0.030854562 0.72409582 -0.45703894 0.85682631
13.63 8.368 -0.70099998 0.035934977 0.7255047 -0.46339488 0.86161661
13.563 8.3859997 -0.699 0.043596931 0.72597343 -0.45321289 0.8569364
13.456 8.349 -0.69300002 0.093395658 0.71800482 -0.42849311 0.84134418
13.394 8.3699999 -0.69 0.12754664 0.70481747 -0.41646227 0.82853884
13.29 8.3629999 -0.685 0.19901539 0.67414498 -0.40636754 0.81191939
13.222 8.3780003 -0.68199998 0.19608963 0.67611039 -0.41378605 0.81657535
13.125 8.3739996 -0.67699999 0.26448295 0.64344049 -0.43684649 0.82146317
13.159 8.4540005 -0.68099999 0.27414358 0.63276625 -0.46443957 0.83141565
13.152 8.5089998 -0.68300003 0.455883 0.45326424 -0.4831872 0.80420625
13.094 8.5 -0.68000001 0.41340616 0.51896119 -0.51883286 0.8422665
12.975 8.4809999 -0.67400002 0.46486995 0.44361642 -0.54963398 0.84557503
12.843 8.4530001 -0.66600001 0.45260283 0.080085717 -0.71538258 0.8503148
13.146 8.7110004 -0.68900001 0.5122878 0.064713433 -0.44661036 0.68270594
13.318 8.8850002 -0.70200002 0.46139932 -0.036666572 -0.4952102 0.67783988
13.348 8.9659996 -0.70599997 0.43973029 -0.076710179 -0.50334632 0.672759
13.762 9.3050003 -0.736 0.51245123 0.19557282 -0.54226798 0.77130377
13.781 9.349 -0.73900002 0.51910144 0.19978976 -0.54334611 0.77756494
13.784 9.415 -0.741 0.51912212 0.19996865 -0.54332113 0.77760726
13.793 9.4840002 -0.74400002 0.51570988 0.24033177 -0.55979794 0.79817903
13.779 9.5389996 -0.745 0.51746541 0.24951373 -0.55358028 0.79779613
13.797 9.6149998 -0.74800003 0.51746541 0.24951373 -0.55358028 0.79779613
13.773 9.6630001 -0.74800003 0.52586275 0.23710899 -0.55978286 0.80380917
13.799 10.208 -0.76800001 0.52355212 0.1734722 -0.59096956 0.80835915
13.804 10.278 -0.76999998 0.51467389 0.055901077 -0.62213957 0.80936503
13.807 10.348 -0.773 0.50953501 0.080146864 -0.6192342 0.80591589
13.798 10.409 -0.77399999 0.51493597 0.046395019 -0.62132925 0.80830783
13.8 10.479 -0.77700001 0.50944251 0.0639176 -0.60979098 0.79715884
13.802 10.549 -0.77899998 0.50673443 0.090174839 -0.6164493 0.80306971
13.801 10.617 -0.78200001 0.51067334 0.074973434 -0.61315852 0.80148089
13.814 10.661 -0.78399998 0.51323646 0.083810605 -0.61016929 0.80171221
13.82 10.735 -0.787 0.50658363 0.042118348 -0.62032318 0.80199862
13.81 10.797 -0.78799999 0.51092821 0.040497951 -0.61804837 0.80291438
13.813 10.87 -0.79100001 0.47544056 -0.094957367 -0.61552012 0.78353405
13.831 10.954 -0.79500002 0.47501165 -0.099100001 -0.61621779 0.7843349
10.493 8.427 -0.55800003 0.064846441 0.53109872 -0.50125271 0.73316109
10.457 8.4239998 -0.55599999 0.067438491 0.53105354 -0.50340271 0.73483342
10.387 8.4219999 -0.55299997 0.072471991 0.53237253 -0.49920329 0.7334007
10.322 8.4230003 -0.55000001 0.07387875 0.53232652 -0.50133389 0.73495936
10.269 8.434 -0.54799998 0.074204609 0.53135306 -0.50356025 0.73580933
10.201 8.4320002 -0.54500002 0.078470387 0.531259 -0.50145978 0.73474866
10.142 8.4370003 -0.54299998 0.079819217 0.53212225 -0.50433469 0.7374813
10.078 8.4379997 -0.54000002 0.074092694 0.52777094 -0.50388288 0.733437
10.033 8.427 -0.53799999 0.063487493 0.53129816 -0.50354701 0.73475713
9.9729996 8.4300003 -0.53500003 0.066146255 0.53055638 -0.50444835 0.73507386
9.9169998 8.4370003 -0.53299999 0.082824886 0.53352267 -0.50868577 0.74180025
9.8590002 8.441 -0.53100002 0.11401028 0.52994394 -0.50599724 0.74153364
9.7939997 8.4399996 -0.528 0.15078445 0.52771384 -0.52465093 0.75926048
9.7440004 8.4490004 -0.52600002 0.1736657 0.51483953 -0.50712657 0.7432341
9.6960001 8.4350004 -0.52399999 0.19365773 0.50458992 -0.52026916 0.75019616
9.6379995 8.4370003 -0.52100003 0.25985569 0.4840318 -0.51510072 0.75308734
9.5629997 8.4259996 -0.51800001 0.32766688 0.45214853 -0.52096307 0.7636795
9.5290003 8.4490004 -0.51700002 0.38371891 0.40487432 -0.51093119 0.75644839
9.5620003 8.5319996 -0.52200001 0.50166297 0.24062751 -0.50210011 0.7494477
9.566 8.5900002 -0.52399999 0.51523948 0.21158041 -0.49337241 0.74407953
9.5620003 8.6400003 -0.52600002 0.5273186 0.17630421 -0.48390442 0.73709667
9.566 8.698 -0.528 0.53462613 0.13216275 -0.48583189 0.73438728
9.5790005 8.7370005 -0.52999997 0.5354737 0.12959605 -0.47993037 0.73065752
9.5780001 8.7910004 -0.53200001 0.53373808 0.13704115 -0.47776562 0.72932613
9.5909996 8.8590002 -0.53500003 0.54203856 0.094608858 -0.49643216 0.7410813
9.5839996 8.908 -0.537 0.54378098 0.077834681 -0.51156843 0.75063854
9.8000002 9.1660004 -0.55599999 0.48452538 -0.18943392 -0.47338462 0.70337975
9.8000002 9.224 -0.55800003 0.48532084 -0.1824645 -0.47854826 0.70557636
9.8030005 9.2849998 -0.56099999 0.5223912 -0.068805918 -0.49685249 0.72421628
9.8100004 9.3210001 -0.56199998 0.5223912 -0.068805918 -0.49685249 0.72421628
9.3999996 8.9890003 -0.53299999 0.38491631 0.39646804 -0.56474274 0.79011506
9.3760004 9.0229998 -0.53299999 0.31640473 0.44948119 -0.56531465 0.78849602
9.3549995 9.059 -0.53299999 0.36643702 0.33539578 -0.7347964 0.88695669
9.3280001 9.0900002 -0.53399998 0.35586724 0.12687588 -0.87320018 0.95142919
9.3009996 9.1210003 -0.53399998 0.3200984 0.29554951 -0.82946318 0.93692136
9.2889996 9.1669998 -0.53500003 0.34941316 0.15973973 -0.87155354 0.95247674
10.066 9.9610004 -0.59799999 0.15523925 0.54734683 -0.43334556 0.71517563
10.01 9.9680004 -0.59600002 0.47909281 0.31177425 -0.58211672 0.81583887
9.9449997 9.9659996 -0.59299999 0.48396033 0.30596763 -0.54427022 0.78997713
9.8850002 9.9689999 -0.59100002 0.46050581 0.35399917 -0.53095728 0.78695405
9.8260002 9.9709997 -0.58899999 0.53927737 0.12175286 -0.55419075 0.78279704
9.9429998 10.153 -0.60100001 0.53838688 0.090020195 -0.61174119 0.8198728
10.003 10.279 -0.60799998 0.52365112 -0.043182231 -0.64358306 0.83082753
9.9519997 10.259 -0.60500002 0.53005558 -0.023281541 -0.62103832 0.81681669
9.9099998 10.28 -0.60399997 0.54341477 0.022651054 -0.5677765 0.78624606
9.9110003 10.345 -0.60699999 0.54009014 -0.01628162 -0.55535877 0.77484572
9.9209995 10.421 -0.611 0.52939641 -0.060124733 -0.56375134 0.77568752
9.9160004 10.481 -0.61299998 0.51739162 0.022003599 -0.68425608 0.85812855
9.9069996 10.539 -0.61500001 0.50821209 0.060656548 -0.68949318 0.85869646
9.9099998 10.608 -0.61799997 0.41806471 0.10979944 -0.82394373 0.93043929
9.9110003 10.642 -0.61900002 0.39232463 0.066598669 -0.84671557 0.9355647
9.9189997 10.718 -0.62300003 -0.27077925 0.040791471 -0.10003966 0.29153606
9.9020004 10.767 -0.62400001 0.41706097 0.065560468 -0.81664836 0.91932178
9.9169998 10.851 -0.62800002 -0.28734481 0.081412554 -0.11490673 0.31999782
9.908 10.91 -0.63 0.42518619 0.036344983 -0.81553447 0.92043507
9.8950005 10.965 -0.63200003 0.5369851 0.046838872 -0.5602541 0.77745199
10.064 11.222 -0.64899999 0.41194764 0.38115624 -0.64061749 0.85168755
10.045 11.236 -0.64899999 0.409522 0.38455278 -0.62047273 0.83700389
9.9799995 11.235 -0.64700001 0.4785361 0.30180025 -0.59624773 0.82194376
9.9200001 11.238 -0.64499998 0.51722711 0.21592917 -0.56160367 0.79344058
9.8610001 11.242 -0.64300001 0.535164 0.16889513 -0.54047328 0.77912605
9.8559999 11.307 -0.64499998 0.52394331 0.21232206 -0.53929806 0.78130639
7.335 8.4790001 -0.43099999 0.13396248 0.52893925 -0.42366832 0.69080931
7.2940001 8.4860001 -0.43000001 0.10606605 0.52140433 -0.37560266 0.65129858
9.8730001 11.508 -0.65399998 0.54862869 0.16944084 -0.49516606 0.75821704
9.8730001 11.582 -0.65799999 0.54910922 0.13708605 -0.48363209 0.74445516
9.8739996 11.657 -0.66100001 0.55490339 0.07762368 -0.48440129 0.7406671
9.875 11.732 -0.66399997 0.56265092 0.084717013 -0.48412693 0.74708229
9.868 11.798 -0.667 0.56545556 0.084549554 -0.48191535 0.74775064
9.8629999 11.868 -0.67000002 0.57124937 0.082180135 -0.48016641 0.75075907
6.9489999 8.4549999 -0.41600001 0.11046841 0.53193069 -0.51605028 0.74930733
6.9180002 8.4700003 -0.41499999 0.11232861 0.53596419 -0.51472831 0.75154543
6.888 8.4890003 -0.41499999 0.099773102 0.53804445 -0.51536781 0.75169837
6.842 8.4860001 -0.41299999 0.11473959 0.53700536 -0.51720923 0.7543509
6.8000002 8.4879999 -0.412 0.10840391 0.53707331 -0.51951373 0.75504547
6.757 8.4890003 -0.41100001 0.11361609 0.53695166 -0.51782393 0.75456434
6.7150002 8.4919996 -0.40900001 0.1037638 0.5372377 -0.51874012 0.75397784
6.691 8.4879999 -0.40799999 0.11510912 0.53986686 -0.51528078 0.75512958
6.6469998 8.4870005 -0.40700001 0.11414509 0.54003185 -0.51264566 0.75330544
6.6090002 8.4940004 -0.40599999 0.11583722 0.54863018 -0.51285881 0.75989312
6.5700002 8.4989996 -0.405 0.11351651 0.54554617 -0.51593918 0.75940758
6.5300002 8.5019999 -0.403 0.1148146 0.54553133 -0.51550579 0.75929773
6.4860001 8.5 -0.40200001 0.11116607 0.54485816 -0.51865327 0.76041406
6.441 8.4969997 -0.40000001 0.11315096 0.54466784 -0.51920843 0.76094913
6.4159999 8.4910002 -0.39899999 0.11258894 0.54447782 -0.52232087 0.76285744
6.3759999 8.4940004 -0.398 0.11545049 0.54233462 -0.52212942 0.76162636
6.335 8.4949999 -0.396 0.13648021 0.54133773 -0.52009541 0.7630024
6.3000002 8.5030003 -0.39500001 0.15833966 0.54176873 -0.52174658 0.76863796
6.2579999 8.5019999 -0.39399999 0.18503927 0.54213661 -0.52184898 0.77490515
6.2199998 8.507 -0.39300001 0.2165076 0.53910893 -0.51649153 0.77735287
6.1810002 8.5089998 -0.39199999 0.23357622 0.53492093 -0.51719999 0.77986801
6.152 8.4980001 -0.38999999 0.24794951 0.53075278 -0.51981866 0.7831915
6.112 8.4989996 -0.389 0.31174031 0.5063442 -0.52901566 0.79587942
6.0749998 8.5039997 -0.38800001 0.33903247 0.49292865 -0.53113854 0.80001867
6.0370002 8.5059996 -0.38699999 0.36192825 0.47745022 -0.53124446 0.80073184
6 8.5109997 -0.38600001 0.40975073 0.44448441 -0.5303756 0.80421412
5.9860001 8.5480003 -0.38699999 0.48475385 0.37215266 -0.53010964 0.80901182
5.9879999 8.6090002 -0.38999999 0.53825551 0.30243397 -0.52171302 0.80831295
5.9949999 8.6479998 -0.39199999 0.55918509 0.26387018 -0.51288116 0.80334455
6.0009999 8.7139997 -0.39500001 0.58081853 0.20806912 -0.48672876 0.78584212
5.993 8.7609997 -0.39700001 0.58926249 0.17837125 -0.48526102 0.78391635
5.9920001 8.8190002 -0.40000001 0.60057062 0.12524769 -0.48476207 0.78189915
5.9910002 8.8760004 -0.403 0.60646993 0.08846011 -0.48178658 0.77958274
5.9889998 8.9350004 -0.405 0.60694253 0.067629226 -0.48005441 0.77679157
5.9879999 8.993 -0.40799999 0.60933375 0.056191254 -0.48120892 0.77846456
5.9840002 9.0480003 -0.41 0.60975027 0.054800764 -0.4809424 0.7785269
6.0029998 9.1079998 -0.414 0.60655344 0.061448865 -0.48205984 0.77721602
5.9980001 9.1630001 -0.41600001 0.60057616 0.068809591 -0.48282701 0.77365911
5.9949999 9.2209997 -0.419 0.60737717 0.072057456 -0.47943705 0.77714813
5.994 9.283 -0.42199999 0.60008281 0.078347258 -0.48054624 0.77276284
5.9910002 9.342 -0.42500001 0.59106946 0.089997694 -0.48041824 0.76698399
5.9889998 9.4040003 -0.428 0.58893692 0.092393443 -0.48007214 0.76541001
5.9949999 9.4790001 -0.43099999 0.58825594 0.076190889 -0.47658855 0.76091182
6.0100002 9.5349998 -0.43399999 0.58815658 0.071657814 -0.47786647 0.76119602
5.9829998 9.559 -0.435 0.58799815 0.068702288 -0.47431073 0.75857264
7.895 12.686 -0.64200002 0.12982322 0.57881528 -0.48856071 0.76848727
7.8460002 12.697 -0.64099997 0.12163883 0.57514578 -0.50186235 0.77295178
7.7909999 12.696 -0.639 0.135589 0.54540575 -0.62701046 0.84201777
7.7309999 12.688 -0.63700002 0.16846821 0.51678896 -0.6967535 0.88369554
7.678 12.69 -0.63599998 0.16498736 0.50480086 -0.70114571 0.87957376
7.6469998 12.685 -0.63499999 0.15172555 0.49103627 -0.70576406 0.87306362
7.5910001 12.682 -0.63300002 0.13488798 0.47480589 -0.7185117 0.8717193
7.5419998 12.69 -0.63200003 0.12496829 0.47829112 -0.70156646 0.85823947
7.4879999 12.69 -0.63 0.12106243 0.50975001 -0.65497702 0.83874673
7.441 12.701 -0.62900001 0.12644255 0.50274301 -0.64299077 0.82593906
7.381 12.69 -0.62699997 0.14055759 0.51125413 -0.62380052 0.81869674
7.3309999 12.696 -0.62599999 0.12598164 0.52300721 -0.57668555 0.78865337
7.2940001 12.678 -0.62400001 0.13937047 0.5320521 -0.57603538 0.79644227
7.25 12.694 -0.62400001 0.11737644 0.52899259 -0.53537744 0.76173449
7.1939998 12.689 -0.62199998 0.119375 0.54023999 -0.52379584 0.76188695
7.1469998 12.697 -0.62099999 0.11305286 0.52514845 -0.51956016 0.74733162
7.098 12.704 -0.62 0.11173896 0.5249061 -0.52315438 0.74946821
7.04 12.695 -0.61799997 0.11493637 0.53349817 -0.52028972 0.75401062
6.9949999 12.706 -0.61699998 0.11545435 0.52516985 -0.51901346 0.74733394
6.96 12.691 -0.616 0.11867456 0.53501028 -0.5166809 0.75317907
6.9089999 12.692 -0.61400002 0.12250651 0.53530246 -0.51126969 0.75030214
6.8569999 12.691 -0.61299998 0.10583773 0.53428531 -0.52500254 0.75649858
6.802 12.686 -0.611 0.094255917 0.53246737 -0.52566057 0.75413841
6.7550001 12.693 -0.61000001 0.073406398 0.52605355 -0.52795625 0.74890494
6.7030001 12.691 -0.60900003 0.0092979968 0.51645595 -0.55984497 0.76173455
6.6570001 12.702 -0.60799998 -0.022851139 0.5146628 -0.55838281 0.75973111
6.316 12.193 -0.574 0.19949576 0.48387817 -0.49444503 0.72000873
6.2220001 12.104 -0.56699997 0.13765016 0.49934426 -0.5077967 0.72536182
6.2080002 12.17 -0.56999999 0.25205621 0.46198305 -0.5137164 0.73543543
6.1859999 12.221 -0.57200003 0.35794955 0.39566156 -0.49667168 0.72894359
6.1370001 12.219 -0.56999999 0.38942268 0.37530565 -0.50561076 0.74036926
6.092 12.226 -0.56900001 0.41646242 0.35981682 -0.51395625 0.75303394
6.0500002 12.189 -0.56699997 0.40254939 0.37417161 -0.50591856 0.74699664
6.0320001 12.249 -0.56900001 0.46105075 0.31174469 -0.51506263 0.75831527
6.0300002 12.343 -0.574 0.50124949 0.23033808 -0.51073116 0.75176656
6.026 12.434 -0.57800001 0.54128301 0.18927714 -0.5041135 0.76350743
6.0240002 12.53 -0.583 0.55115002 0.095381394 -0.48836896 0.74254167
6.0240002 12.63 -0.588 0.54878008 0.036483645 -0.48835054 0.7355113
6.02 12.725 -0.59299999 0.5443278 0.016046746 -0.49109456 0.73329675
6.0409999 12.821 -0.59799999 0.54283136 0.015939768 -0.49130604 0.73232615
6.0440001 12.932 -0.60399997 0.54721183 0.020705754 -0.49175975 0.73600078
6.0380001 13.025 -0.60900003 0.54929775 0.014959209 -0.49347129 0.7385565
6.0359998 13.127 -0.61400002 0.56340855 0.031046107 -0.49120843 0.74811685
6.0469999 13.261 -0.62099999 0.57301134 0.018720355 -0.48298231 0.74964279
6.0250001 13.323 -0.62400001 0.57445902 0.009996919 -0.47920927 0.74816084
7.5180001 16.747999 -0.83499998 -0.37169629 0.50620407 0.18608178 0.65500164
7.493 16.764 -0.83499998 -0.37285888 0.50608116 0.18537742 0.65536761
7.421 16.743 -0.833 -0.36521542 0.50568187 0.20264995 0.65586847
7.3660002 16.761 -0.83200002 -0.36355191 0.51904482 0.23859237 0.67712909
7.3039999 16.761999 -0.83099997 -0.36094153 0.52100104 0.25956824 0.68490624
7.2410002 16.763 -0.82999998 -0.36308685 0.52206302 0.27285731 0.69197762
7.177 16.757999 -0.82800001 -0.37334129 0.52252269 0.27461958 0.698448
7.118 16.766001 -0.82700002 -0.38472053 0.5202207 0.27749586 0.70401949
7.0780001 16.746 -0.82499999 -0.38906714 0.52684844 0.29162979 0.71693128
7.0170002 16.747999 -0.824 -0.38164732 0.5273726 0.31840813 0.72467941
