# .PCD v0.7 - Point Cloud Data file format
VERSION 0.7
FIELDS x y z normal_x normal_y normal_z curvature
SIZE 4 4 4 4 4 4 4
TYPE F F F F F F F
COUNT 1 1 1 1 1 1 1
WIDTH 56
HEIGHT 1
VIEWPOINT 0 0 0 1 0 0 0
POINTS 56
DATA ascii
44.726002 7.9990001 1.457 0.41221094 0.13166666 -0.43615994 0.6144017
44.613998 8.1239996 1.455 0.424155 0.066694014 -0.40578178 0.59077442
44.611 8.1960001 1.455 0.424155 0.066694014 -0.40578178 0.59077442
44.605999 8.3400002 1.456 0.43589297 -0.0016844794 -0.39766318 0.5900352
44.594002 8.4829998 1.456 0.44061896 -0.21671069 -0.30486971 0.5779742
44.570999 8.6239996 1.456 0.43766668 -0.19819365 -0.30077672 0.56683284
44.558998 8.7670002 1.456 0.43427509 -0.18786427 -0.2933504 0.55672461
44.525002 8.9049997 1.456 0.43699816 -0.21927501 -0.29059994 0.5687682
44.522999 9.2690001 1.4579999 -0.057846569 -0.25992703 0.072889 0.27608168
44.494999 9.4090004 1.4579999 -0.10105437 -0.24948126 0.062693357 0.27637538
44.488998 9.5539999 1.459 -0.090674035 -0.24884398 0.063681513 0.27239758
44.473999 9.6969995 1.459 -0.068701595 -0.24195783 0.063925862 0.2595188
44.455002 9.8389997 1.46 0.42194957 -0.15491095 -0.31149167 0.54686916
44.433998 9.9809999 1.46 0.41235188 -0.16058943 -0.25437292 0.51042002
44.344002 10.034 1.4579999 0.41235188 -0.16058943 -0.25437292 0.51042002
44.411999 10.196 1.461 0.41803429 -0.18085596 -0.26131076 0.52511412
44.685001 8.0819998 1.243 0.46828842 0.34673735 -0.41517156 0.7154637
44.653999 8.2220001 1.242 0.45391762 -0.020483457 -0.49329871 0.67067456
44.653 8.3669996 1.243 0.45559946 -0.040021576 -0.4780713 0.66160774
44.644001 8.4370003 1.243 0.45502466 -0.033117101 -0.47806224 0.66082346
44.631001 8.5799999 1.243 0.44794843 -0.026554141 -0.48014551 0.65719301
44.620998 8.724 1.244 0.4438208 -0.1805993 -0.40295723 0.62607312
44.599998 8.8649998 1.244 0.4473159 -0.16127768 -0.39780378 0.61995953
44.452 10.077 1.2460001 0.44347835 -0.21884617 -0.40272897 0.6377753
44.479 10.23 1.248 0.44965521 -0.29176882 -0.40549451 0.6721195
44.865002 7.9640002 0.90100002 0.23131415 0.73013318 -0.44835138 0.88747942
44.645 8.0699997 0.898 0.38825577 0.63231456 -0.38485217 0.83586806
44.629002 8.2119999 0.898 0.4848699 0.39616725 -0.4345991 0.76218349
44.617001 8.3549995 0.898 0.48749235 0.29872778 -0.44794118 0.72631842
44.596001 8.4960003 0.898 0.44586447 -0.010666944 -0.50882488 0.6766178
44.597 8.5679998 0.89899999 0.44586453 -0.012552463 -0.51494402 0.68126357
44.591 8.7130003 0.89899999 0.44622007 -0.0198966 -0.52473402 0.68909651
44.573002 8.8549995 0.89899999 0.45318338 -0.033678547 -0.53367305 0.7009396
44.453999 10.072 0.90100002 0.44455341 -0.24090537 -0.45626289 0.68105721
44.425999 10.212 0.90100002 0.45301405 -0.24114561 -0.45711637 0.6872614
44.942001 7.9720001 0.66799998 0.16882953 0.75465566 -0.35483456 0.85083258
44.605999 8.0570002 0.66500002 0.42592162 0.54388785 -0.50248969 0.85423595
44.623001 8.132 0.66600001 0.42592162 0.54388785 -0.50248969 0.85423595
44.672001 8.2869997 0.66600001 0.50198638 0.34302866 -0.39871395 0.72707069
44.646999 8.427 0.66600001 0.49056783 0.31781402 -0.40620232 0.7118026
44.584999 8.5609999 0.66600001 0.48263606 0.3435007 -0.41235477 0.7217803
44.571999 8.7030001 0.66600001 0.44611549 -0.018153213 -0.45963308 0.64078945
44.554001 8.8450003 0.66600001 0.42596272 0.092040524 -0.45040447 0.62672156
44.372002 9.1719999 0.66500002 -0.054766476 -0.24426115 0.065433145 0.2587361
44.313 9.7419996 0.66600001 0.40213624 -0.3614729 -0.27484041 0.60655868
44.443001 9.9169998 0.667 0.43300006 -0.32966152 -0.37622011 0.66159451
44.423 10.059 0.667 0.42180073 -0.38607216 -0.4055208 0.70100975
44.458 10.141 0.66799998 0.43854377 -0.31475589 -0.42217854 0.68529308
44.693001 7.9070001 0.34999999 0.47930425 0.44425744 -0.40399384 0.7683152
44.587002 8.033 0.34999999 0.47538668 0.4512583 -0.3986319 0.76715964
44.605 8.1809998 0.34999999 0.49584204 0.34487668 -0.41394016 0.73221976
44.615002 8.8360004 0.34999999 0.47830173 0.3147718 -0.33439171 0.66307741
44.526001 9.7670002 0.35100001 0.4251346 -0.25985432 -0.29804021 0.58059597
44.421001 9.8909998 0.34999999 0.42993501 -0.29547337 -0.32821488 0.61633891
44.374001 10.027 0.34999999 0.43010455 -0.18740676 -0.42288455 0.63161898
44.519001 10.133 0.35100001 0.43595499 -0.19430059 -0.42038473 0.63602895
