# .PCD v0.7 - Point Cloud Data file format
VERSION 0.7
FIELDS x y z normal_x normal_y normal_z curvature
SIZE 4 4 4 4 4 4 4
TYPE F F F F F F F
COUNT 1 1 1 1 1 1 1
WIDTH 663
HEIGHT 1
VIEWPOINT 0 0 0 1 0 0 0
POINTS 663
DATA ascii
-18.837 12.169 0.96700001 0.00085658999 0.73456872 -0.43088761 0.85161966
-18.964001 12.167 0.97100002 0.0019322429 0.74140567 -0.43468362 0.85943931
-19.069 12.192 0.97399998 0.0035234489 0.74139428 -0.43647081 0.86033982
-19.202 12.192 0.97799999 -0.0051114336 0.72001112 -0.4439806 0.84590828
-19.327999 12.186 0.98199999 -0.023964226 0.70910347 -0.44586864 0.83797425
-19.459999 12.184 0.98500001 -0.017355064 0.71228421 -0.43556356 0.8350842
-19.591 12.181 0.98900002 -0.0090239281 0.73662978 -0.41954845 0.84777695
-19.726 12.179 0.99299997 -0.019609172 0.73943615 -0.42644343 0.85381752
-19.855 12.172 0.99699998 -0.012336493 0.79514861 -0.39725125 0.88894433
-19.978001 12.204 1.001 0.0026567737 0.79908931 -0.40489927 0.89582038
-20.105 12.195 1.0039999 -0.0011635637 0.7647109 -0.42453673 0.87465173
-20.247999 12.195 1.008 0.001752954 0.76225179 -0.42364588 0.87207037
-20.388 12.192 1.012 -0.008206794 0.76145482 -0.41147017 0.86555678
-20.541 12.196 1.017 -0.0084055047 0.79815388 -0.37931284 0.8837412
-20.665001 12.182 1.02 -0.0065852017 0.8016029 -0.38325891 0.88853699
-20.816999 12.183 1.025 0.0059864051 0.79691744 -0.39758411 0.8906101
-20.940001 12.211 1.029 0.012509321 0.79755986 -0.40585718 0.89497387
-21.082001 12.205 1.033 0.014364156 0.76243508 -0.430913 0.87589931
-21.228001 12.2 1.0369999 0.0022692804 0.76179469 -0.42701021 0.87331206
-21.396999 12.208 1.0420001 -0.0055524772 0.74259287 -0.42157704 0.85393339
-21.527 12.193 1.046 -0.0040904665 0.75852025 -0.39676481 0.85603273
-21.691 12.195 1.051 0.0023849744 0.75777143 -0.4131211 0.86307138
-21.843 12.19 1.0549999 0.023860615 0.75460166 -0.42236212 0.8650912
-21.982 12.223 1.0599999 0.028473247 0.74990582 -0.43766758 0.86874759
-22.141001 12.22 1.064 0.028892066 0.74192137 -0.45307192 0.86980242
-22.295 12.214 1.069 0.0027285193 0.81874764 -0.3990337 0.91081452
-22.455 12.21 1.073 0.0093461052 0.8094883 -0.38958928 0.89840883
-22.634001 12.215 1.079 0.016601235 0.80737364 -0.37668037 0.89107567
-22.796 12.21 1.084 0.0073002838 0.80086148 -0.38132462 0.8870405
-22.962999 12.206 1.0880001 0.014957089 0.80105436 -0.4040966 0.89733267
-23.115 12.24 1.094 0.035037771 0.7915107 -0.43080276 0.9018358
-23.275 12.232 1.098 0.020844802 0.83112514 -0.41948816 0.93122172
-23.450001 12.229 1.103 0.010154828 0.83206534 -0.40891242 0.92717057
-23.622999 12.225 1.109 -0.016649904 0.82745194 -0.39127043 0.91544878
-23.809 12.227 1.114 -0.071437337 0.82297587 -0.40180638 0.91860819
-24.104 12.14 1.122 -0.10763288 0.78256071 -0.44889116 0.90856445
-15.055 12.133 0.74000001 0.082426973 0.6984725 -0.48067284 0.85188287
-15.16 12.139 0.74199998 0.13929954 0.69710553 -0.42214173 0.82677931
-15.248 12.131 0.74400002 0.13756005 0.69568741 -0.42313802 0.82580233
-15.333 12.121 0.74599999 0.14076976 0.69586295 -0.42158833 0.82569855
-17.924 12.179 0.80400002 0.0066197449 0.73574281 -0.45763546 0.86648226
-18.034 12.17 0.80599999 -0.0062159607 0.73554659 -0.44415411 0.85926729
-18.148001 12.165 0.80900002 -0.0044083782 0.73553866 -0.43712872 0.85563898
-18.268 12.162 0.81199998 -0.0047078035 0.72224796 -0.446576 0.84917277
-18.367001 12.187 0.81400001 0.011140984 0.72041446 -0.45297593 0.85106307
-18.492001 12.186 0.81699997 0.012161113 0.72036308 -0.45644143 0.85288316
-18.610001 12.181 0.81999999 0.0051839496 0.73199546 -0.45891017 0.86396921
-18.732 12.177 0.82300001 0.0036446191 0.73208171 -0.4558515 0.86241376
-18.861 12.176 0.82599998 -0.0070753614 0.74130595 -0.45115608 0.86782855
-18.987 12.173 0.82800001 -0.0038087387 0.72916365 -0.46197826 0.86320221
-19.117001 12.173 0.83099997 -0.0069759199 0.72353011 -0.45996493 0.85738689
-19.221001 12.196 0.83399999 -0.010091445 0.71042472 -0.47344846 0.8537907
-19.351999 12.195 0.83700001 -0.011722276 0.69581604 -0.48158988 0.84630144
-19.48 12.19 0.83999997 -0.0060950816 0.71838337 -0.46688986 0.85679519
-19.611 12.187 0.84299999 -0.0032789218 0.72512007 -0.45670095 0.85696304
-19.757 12.192 0.847 -0.017050585 0.73955584 -0.44420245 0.86287278
-19.884001 12.184 0.84899998 -0.013234679 0.7387684 -0.45178616 0.86606276
-20.021999 12.183 0.85299999 -0.010172294 0.76110792 -0.4434118 0.88091022
-20.129999 12.205 0.85500002 -0.0095771067 0.76510787 -0.44920957 0.88728297
-20.268 12.202 0.85900003 -0.0029029609 0.76207399 -0.46036571 0.890338
-20.412001 12.202 0.86199999 -0.0012448155 0.76680791 -0.44707528 0.8876217
-20.556999 12.201 0.86500001 -0.00038461108 0.77001762 -0.4353174 0.88454992
-20.697001 12.197 0.86900002 -0.0067063891 0.77009714 -0.43172199 0.88288075
-20.847 12.197 0.87199998 -0.0015193127 0.76293266 -0.43736497 0.87940699
-20.983999 12.189 0.875 0.0027741157 0.74283326 -0.45434192 0.87076718
-21.108999 12.217 0.87900001 0.007023118 0.7428546 -0.46422559 0.87600672
-21.253 12.212 0.88200003 0.0019566091 0.74261218 -0.46925658 0.87845224
-21.398001 12.206 0.88599998 0.001995137 0.74228966 -0.45990813 0.87322015
-21.556999 12.207 0.889 0.0053726668 0.7430225 -0.44807991 0.86769056
-21.715 12.207 0.89300001 0.0073043057 0.74128306 -0.44796744 0.86615747
-21.872 12.205 0.89700001 0.016958278 0.75473332 -0.43869478 0.87313408
-22.025999 12.201 0.89999998 0.016936863 0.75446594 -0.44855595 0.87789989
-22.167 12.234 0.90399998 0.018748477 0.74152696 -0.45862043 0.87209308
-22.320999 12.227 0.90799999 0.014905962 0.73760891 -0.46865878 0.87403095
-22.488001 12.227 0.912 0.0066014938 0.76538479 -0.45144653 0.88862896
-22.656 12.227 0.91600001 0.020512242 0.76078558 -0.43786439 0.87803233
-22.812 12.219 0.92000002 0.0037811399 0.8010776 -0.40931335 0.89959824
-22.983 12.218 0.92400002 0.0072992016 0.80102813 -0.41127643 0.90047079
-23.157 12.217 0.92799997 0.02689134 0.79174793 -0.42971984 0.9012475
-23.313 12.253 0.93199998 0.025403846 0.83211184 -0.40611547 0.9262749
-23.48 12.247 0.93599999 0.014446276 0.83219731 -0.40707821 0.92653859
-23.659 12.246 0.94099998 -0.030335149 0.8257097 -0.4159736 0.92506796
-23.830999 12.24 0.94499999 -0.067683697 0.82386541 -0.39081067 0.91436768
-24.017 12.241 0.949 -0.077263556 0.80410194 -0.39176443 0.89779115
-24.014 12.145 0.94800001 -0.077263556 0.80410194 -0.39176443 0.89779115
-24.094999 12.091 0.949 -0.12674107 0.79206979 -0.38566986 0.89004439
-15.091 12.151 0.64999998 0.14007378 0.69665331 -0.42217705 0.82654703
-15.182 12.146 0.65100002 0.15049314 0.69403172 -0.39700022 0.81359535
-15.278 12.144 0.653 0.15377703 0.69265735 -0.39689735 0.81298774
-17.973 12.193 0.70300001 0.012381439 0.71375656 -0.43670458 0.83684683
-18.076 12.18 0.70499998 0.00075420458 0.73521399 -0.42409068 0.84875977
-18.187 12.172 0.70700002 0.0041083847 0.72205174 -0.4353663 0.84316039
-18.309999 12.171 0.70899999 0.0065526473 0.72037554 -0.44002974 0.84416229
-18.427999 12.166 0.71100003 0.0077338186 0.72043097 -0.44432604 0.8464669
-18.533001 12.193 0.71399999 0.0075808838 0.72043496 -0.45267645 0.85088187
-18.645 12.183 0.71600002 0.0066055842 0.72035974 -0.45828408 0.85380679
-18.784 12.189 0.71799999 0.003825495 0.73202914 -0.45774442 0.86337203
-18.899 12.18 0.72000003 -0.0061155874 0.72926325 -0.45936173 0.86190224
-19.027 12.178 0.72299999 -0.0004105363 0.72922283 -0.45877704 0.86153495
-19.156 12.176 0.72500002 -0.012178149 0.71051645 -0.47207201 0.85313183
-19.287001 12.174 0.72799999 -0.0027117762 0.70893371 -0.47355121 0.85255212
-19.399 12.202 0.73000002 -0.0038205441 0.70576549 -0.47608781 0.85133964
-19.525999 12.196 0.73299998 -0.0085757039 0.70579416 -0.47686052 0.8518303
-19.663 12.196 0.73500001 -0.021257874 0.72636873 -0.46269032 0.86147887
-19.795 12.192 0.73799998 -0.022045162 0.72329485 -0.46240538 0.85875505
-19.927 12.187 0.74000001 -0.0063031511 0.7385534 -0.45605835 0.86803806
-20.066 12.185 0.74299997 -0.003377622 0.73579723 -0.45903778 0.86725122
-20.197001 12.178 0.745 -0.011180322 0.76070994 -0.44629389 0.88203335
-20.322001 12.21 0.74800003 -0.0008708965 0.76473773 -0.44343805 0.88400334
-20.459999 12.205 0.75099999 0.00192677 0.7698881 -0.43880364 0.88616025
-20.603001 12.203 0.75400001 -0.0064195837 0.7700215 -0.43481562 0.88432968
-20.747999 12.201 0.75599998 -0.0042698411 0.72932923 -0.45850378 0.86149001
-20.889 12.195 0.759 -0.00032365159 0.73020053 -0.45867881 0.86231041
-21.034 12.191 0.76200002 0.0024018565 0.74332434 -0.45527846 0.87167388
-21.184999 12.19 0.76499999 -0.00056533841 0.7431159 -0.46058258 0.87427562
-21.308001 12.216 0.76800001 0.0030885306 0.74225283 -0.46043518 0.87346971
-21.458 12.212 0.77100003 0.0013941871 0.74237192 -0.45817164 0.87237567
-21.615999 12.212 0.77399999 0.0024532182 0.74288297 -0.45334896 0.87029099
-21.780001 12.215 0.77700001 0.010664529 0.74118125 -0.45095712 0.86765534
-21.922001 12.203 0.77999997 0.013900074 0.75466943 -0.44321504 0.87530494
-22.084 12.203 0.78299999 0.0095012579 0.75334787 -0.44855243 0.87682527
-22.24 12.198 0.78600001 0.0089667579 0.74185282 -0.45460793 0.8701117
-22.406 12.198 0.78899997 0.020978097 0.73783934 -0.46228713 0.87095141
-22.545 12.227 0.792 0.016067924 0.73807949 -0.45876151 0.86918449
-22.719 12.229 0.796 0.026076479 0.76093155 -0.44020641 0.87947625
-22.879 12.223 0.79900002 0.0092240861 0.75546408 -0.44519436 0.87693161
-23.046 12.219 0.80199999 0.0073280265 0.80105829 -0.40996394 0.89989918
-23.113001 12.161 0.80299997 0.018851684 0.75542617 -0.44515285 0.87703198
-23.357 12.196 0.80800003 0.039251849 0.78896534 -0.43103608 0.8998884
-23.530001 12.192 0.81199998 0.017806705 0.83259982 -0.40025532 0.92398262
-23.674 12.219 0.815 -0.02159372 0.82726079 -0.39367187 0.91640836
-23.971001 12.182 0.82099998 -0.10074557 0.81836659 -0.39990136 0.91640311
-24.098 12.152 0.82300001 -0.10646418 0.79681408 -0.41832468 0.90622449
-15.016 12.134 0.50099999 0.16241823 0.69135231 -0.38932306 0.80988896
-15.091 12.116 0.50199997 0.14857776 0.69347078 -0.39331886 0.81097275
-15.184 12.113 0.50300002 0.15717275 0.69138736 -0.39976022 0.81395823
-15.303 12.13 0.505 0.1563772 0.69233155 -0.39660263 0.81306237
-17.860001 12.169 0.53600001 0.05144228 0.71227646 -0.44175318 0.83972013
-17.962 12.156 0.53799999 0.035877042 0.70519757 -0.44241345 0.83325893
-18.09 12.16 0.53899997 -0.0040246132 0.71000975 -0.39444962 0.81223184
-18.209999 12.158 0.54100001 -0.0010899748 0.70389354 -0.35532373 0.78849369
-18.334 12.158 0.542 0.00068849092 0.7111299 -0.35282588 0.79384649
-18.441 12.145 0.54400003 0.00095501589 0.7060858 -0.32987869 0.77934462
-18.563 12.142 0.54500002 -0.0038554557 0.70798063 -0.39140618 0.80898094
-18.674999 12.174 0.54699999 -0.010027067 0.70903379 -0.40199101 0.81512344
-18.801001 12.172 0.54799998 0.00081766618 0.71360922 -0.47239748 0.85580266
-18.921 12.166 0.55000001 -0.0069377539 0.72922492 -0.46068108 0.86257994
-19.047001 12.163 0.551 0.0051856451 0.72902131 -0.42705163 0.84490949
-19.183001 12.165 0.55299997 -0.0043124072 0.7104845 -0.43820196 0.8347621
-19.304001 12.157 0.55500001 -0.0087038539 0.70619744 -0.44734317 0.83600628
-19.434999 12.155 0.55599999 -0.026132638 0.69788706 -0.45231771 0.83205801
-19.546 12.182 0.55800003 -0.015862988 0.69763267 -0.47957721 0.84672153
-19.677999 12.178 0.56 -0.01126332 0.70399159 -0.47921348 0.85169041
-19.813 12.176 0.56099999 -0.0094583454 0.72374856 -0.46795776 0.86190832
-19.955 12.177 0.56300002 -0.010172592 0.71432239 -0.47291166 0.85674113
-20.082001 12.169 0.565 -0.0052424753 0.72282487 -0.47041968 0.86243719
-20.218 12.164 0.56699997 -0.002736073 0.72895265 -0.46722609 0.86584044
-20.357 12.161 0.56800002 -0.00018113852 0.72434425 -0.46638247 0.86150289
-20.497 12.158 0.56999999 -0.0019605716 0.7337839 -0.46640518 0.86946905
-20.625999 12.191 0.57200003 -0.0065451185 0.7198711 -0.47472584 0.86233515
-20.771 12.189 0.574 -0.01076141 0.71995139 -0.47294381 0.8614648
-20.909 12.182 0.57599998 -0.010391273 0.72058839 -0.47357991 0.86234188
-21.052999 12.177 0.57800001 -0.00051824434 0.72115457 -0.47603148 0.86410081
-21.195 12.171 0.57999998 0.010706883 0.72269958 -0.45148867 0.85220385
-21.348 12.17 0.58200002 0.0056060045 0.73004943 -0.41630223 0.84042317
-21.500999 12.168 0.58399999 0.0023907796 0.72837245 -0.39398143 0.82810235
-21.639999 12.202 0.58600003 -0.0001721736 0.73962069 -0.38050184 0.83175743
-21.795 12.199 0.588 0.0065917163 0.73926002 -0.374715 0.8288306
-21.945 12.193 0.58999997 0.010778785 0.73764706 -0.37709776 0.82851797
-22.113001 12.196 0.59200001 0.0087202061 0.73490214 -0.38119632 0.82792985
-22.261 12.187 0.59399998 0.015075982 0.73948145 -0.37413344 0.82887632
-22.422001 12.184 0.59600002 0.035462987 0.73319864 -0.37159604 0.82275236
-22.593 12.185 0.59799999 0.025293645 0.73528183 -0.38500029 0.83036399
-22.74 12.218 0.60000002 0.032096148 0.73012304 -0.36247611 0.81578106
-22.903999 12.214 0.60299999 0.0023294585 0.75197792 -0.36921895 0.83773434
-23.077999 12.214 0.60500002 -0.0050888397 0.75380909 -0.38932315 0.84842592
-23.238001 12.206 0.60699999 0.02330897 0.75126565 -0.41993216 0.86097991
-23.415001 12.205 0.60900003 0.030628901 0.78959298 -0.41267908 0.89145905
-23.59 12.202 0.61199999 -0.010870186 0.82752168 -0.39155456 0.91554642
-23.768 12.2 0.61400002 -0.051076006 0.82547975 -0.3951408 0.91660345
-23.93 12.236 0.61699998 -0.087440185 0.82102895 -0.39156047 0.91381288
-24.111 12.233 0.61900002 -0.11347033 0.79552376 -0.40711319 0.90081888
-24.070999 12.118 0.61799997 -0.13639802 0.81039846 -0.39495766 0.91177934
-15.296 12.244 0.405 0.15885738 0.68803167 -0.35519272 0.79043347
-18.118 12.215 0.428 -0.034523044 0.68286878 -0.26583904 0.73360205
-18.200001 12.228 0.42899999 0.0016591316 0.68510568 -0.29069585 0.7442289
-18.299 12.211 0.43000001 0.0090249125 0.69828814 -0.28419411 0.75395888
-18.405001 12.199 0.43000001 -0.0075338832 0.69061315 -0.26387513 0.73934656
-18.511999 12.186 0.43099999 -0.0075659682 0.69646001 -0.27955812 0.75051081
-18.622 12.175 0.43200001 -0.018775403 0.70808911 -0.35942233 0.7943092
-18.733 12.163 0.433 -0.0038535171 0.68075228 -0.26370281 0.73005325
-18.848 12.154 0.43399999 -0.0025805417 0.6995526 -0.31150475 0.76577783
-18.976999 12.153 0.435 0.0068113804 0.72291332 -0.41518766 0.8336851
-19.091999 12.184 0.43599999 -0.02068691 0.68299717 -0.24059373 0.72442973
-19.219999 12.181 0.43700001 -0.031113783 0.70397294 -0.35664728 0.78977418
-19.341 12.172 0.43799999 -0.029823648 0.70229328 -0.42341229 0.82059932
-19.466 12.165 0.43900001 -0.047040381 0.70179456 -0.42898342 0.82386601
-19.610001 12.169 0.44 -0.022567943 0.70098758 -0.46703836 0.8426255
-19.736 12.162 0.442 -0.0065190988 0.70504087 -0.47499236 0.85014284
-19.874001 12.161 0.44299999 -0.011274258 0.70972162 -0.47220445 0.8525309
-19.995001 12.192 0.44400001 -0.010087093 0.71468687 -0.46122503 0.85065126
-20.134001 12.19 0.44499999 -0.010378781 0.72557873 -0.45526683 0.85664463
-20.271999 12.186 0.44600001 0.0021223649 0.734438 -0.45287555 0.86284411
-20.413 12.184 0.447 0.0023343908 0.72454548 -0.45949459 0.85796672
-20.563 12.186 0.449 -0.0022287983 0.72014135 -0.46821263 0.85897124
-20.702999 12.181 0.44999999 -0.0046450943 0.72013646 -0.46883294 0.8593151
-20.85 12.179 0.45100001 -0.0076452787 0.72085685 -0.46782711 0.8593924
-20.959 12.199 0.45199999 0.013484735 0.7207756 -0.45468864 0.85231513
-21.091 12.187 0.45300001 0.02072875 0.7214306 -0.44921213 0.85010785
-21.250999 12.19 0.45500001 0.040594097 0.72075391 -0.42612177 0.83828032
-21.4 12.186 0.456 0.048392888 0.72701931 -0.39103144 0.82692474
-21.545 12.179 0.45699999 0.016654663 0.7221688 -0.34443995 0.80027747
-21.721001 12.188 0.45899999 0.034824431 0.71289462 -0.30992126 0.77812767
-21.864 12.178 0.46000001 0.033162519 0.72241557 -0.29937646 0.78269422
-22.011999 12.216 0.46200001 0.0044367244 0.7242167 -0.303119 0.78510553
-22.159 12.206 0.463 0.0085321851 0.7156406 -0.30996615 0.77993155
-22.326 12.206 0.46399999 0.012452343 0.72277212 -0.29715675 0.78157324
-22.478001 12.198 0.46599999 0.014170915 0.71762609 -0.29646552 0.77658218
-22.65 12.199 0.46700001 0.013003166 0.716537 -0.29282895 0.7741726
-22.816999 12.197 0.46900001 0.018675342 0.7181915 -0.32370505 0.78799289
-22.992001 12.197 0.47 -0.01532913 0.72382492 -0.35576499 0.80667603
-23.138 12.228 0.472 -0.015493216 0.75238299 -0.37881422 0.84250838
-23.301001 12.22 0.47299999 0.022064965 0.75071895 -0.40555212 0.85354459
-23.474001 12.217 0.47499999 0.027707022 0.75067675 -0.41533634 0.85836333
-23.638 12.208 0.47600001 -0.017184544 0.82754695 -0.36844373 0.90602428
-23.830999 12.213 0.47799999 -0.060245711 0.82489073 -0.37957829 0.91002965
-23.916 12.162 0.47799999 -0.084077165 0.82163095 -0.38901109 0.91294909
-24.101999 12.161 0.47999999 -0.12998207 0.81207001 -0.39502227 0.91235715
-24.084 12.104 0.47999999 -0.12998207 0.81207001 -0.39502227 0.91235715
-15.213 12.229 0.26800001 0.20593566 0.68071699 -0.37166142 0.80244458
-15.714 12.471 0.27000001 -0.16007766 0.63121283 -0.57830864 0.87091643
-17.233999 12.117 0.273 0.065444052 0.72136867 -0.46081966 0.85849315
-17.357 12.122 0.27399999 0.041969631 0.71829003 -0.48077527 0.86535937
-17.461 12.113 0.27399999 0.042475484 0.72250974 -0.48449016 0.87095076
-17.572001 12.15 0.27399999 0.037689444 0.72194147 -0.49333864 0.87521595
-17.674 12.139 0.27399999 0.075097024 0.71333981 -0.46286911 0.85366333
-18.259001 12.457 0.27599999 0.30989873 0.60471392 -0.34633058 0.762667
-18.327999 12.42 0.27700001 0.20337768 0.6397686 -0.26021165 0.71998364
-18.249001 12.282 0.27599999 0.1869601 0.67022216 -0.30634701 0.76026332
-18.549999 12.401 0.27700001 0.084856883 0.61081469 -0.1461924 0.63377243
-18.83 12.503 0.278 0.075609855 0.6480428 -0.17003822 0.67423236
-18.931 12.528 0.278 -0.036184546 0.74043912 -0.45047224 0.86745876
-19.061001 12.528 0.27900001 -0.0074232509 0.70295835 -0.25075221 0.74637944
-19.174 12.516 0.27900001 -0.12370513 0.54574883 -0.10191244 0.56879777
-19.374001 12.56 0.28 -0.028060216 0.31851777 0.040305138 0.32228163
-19.620001 12.633 0.28 0.078773111 0.71479774 -0.60274971 0.93832201
-19.243999 12.305 0.27900001 -0.25270683 0.56144625 -0.19110826 0.64467436
-19.313 12.221 0.27900001 -0.27736902 0.574278 -0.23955262 0.68125927
-19.357 12.164 0.27900001 -0.29705685 0.61293066 -0.37927097 0.77959812
-19.488001 12.161 0.27900001 -0.13194613 0.68760782 -0.40874493 0.81073225
-19.625 12.161 0.28 -0.05237893 0.70586783 -0.46736431 0.84818769
-19.761999 12.16 0.28 -0.019162476 0.70902997 -0.47500274 0.85365003
-19.903999 12.162 0.28 -0.0021215957 0.71278542 -0.47991002 0.85929114
-20.025 12.15 0.28099999 0.00086419564 0.71161312 -0.48105922 0.85895985
-20.139999 12.177 0.28099999 0.0025039455 0.7116375 -0.47834268 0.85746485
-20.283001 12.176 0.28099999 0.0045352806 0.72642875 -0.46653083 0.86334831
-20.427999 12.176 0.28200001 -0.0036860805 0.72037369 -0.46481848 0.85732609
-20.569 12.173 0.28200001 -0.011462034 0.71889669 -0.46398416 0.85570157
-20.705 12.166 0.28299999 -0.0093575316 0.72482914 -0.46880168 0.86327279
-20.856001 12.167 0.28299999 -0.012451169 0.72604394 -0.47351757 0.86689889
-20.996 12.161 0.28299999 0.025178086 0.72544414 -0.46494469 0.862019
-21.302 12.294 0.28400001 0.082113847 0.72572315 -0.40181524 0.83358997
-21.5 12.318 0.285 0.082255363 0.71378988 -0.33784726 0.79397905
-21.695 12.34 0.285 0.0081899026 0.70876825 -0.25787234 0.75426626
-21.816 12.318 0.28600001 0.020768916 0.71181613 -0.26499307 0.75982559
-21.993999 12.328 0.28600001 0.058200967 0.67209774 -0.18987453 0.70082456
-22.146 12.322 0.287 0.028334897 0.64764071 -0.16323489 0.66849607
-22.316 12.325 0.287 0.012766669 0.66419899 -0.16806 0.68524992
-22.447001 12.352 0.28799999 0.038595311 0.63037717 -0.13019896 0.64483857
-22.603001 12.346 0.28799999 0.030677684 0.62597299 -0.12405974 0.63888508
-22.790001 12.355 0.289 -0.0093077067 0.60674506 -0.11320078 0.61728483
-22.938999 12.343 0.289 -0.10283707 0.63431597 -0.12375432 0.65440613
-23.163 12.276 0.289 -0.12691191 0.70305502 -0.25458398 0.75842333
-23.184 12.194 0.289 -0.069316879 0.74860668 -0.40831545 0.85553396
-23.329 12.224 0.28999999 -0.0040427148 0.75025451 -0.41855881 0.85912144
-23.507 12.224 0.28999999 0.025044862 0.74998569 -0.45974809 0.88004208
-23.667999 12.213 0.29100001 -0.011781695 0.76186383 -0.4440127 0.88188577
-23.856001 12.215 0.29100001 -0.078517839 0.82230866 -0.39448857 0.91541123
-24.014999 12.202 0.292 -0.11696355 0.81504393 -0.39868993 0.91483921
-23.993 12.096 0.292 -0.11696355 0.81504393 -0.39868993 0.91483921
-15.723 12.513 0.175 -0.14194061 0.6508413 -0.55058843 0.86422747
-15.814 12.505 0.175 0.41528893 -0.12720637 -0.31830984 0.5384863
-15.893 12.527 0.175 0.53544408 0.037468553 -0.51056063 0.74079442
-16.056999 12.493 0.175 0.48826721 0.012694269 -0.64351124 0.80788165
-15.898 12.29 0.175 0.51497579 -0.019156709 -0.41772208 0.66336924
-15.964 12.181 0.175 0.5417791 0.047420025 -0.45526716 0.70925415
-15.991 12.122 0.175 0.51927304 0.00010384619 -0.34982404 0.6261161
-17.351 12.15 0.17399999 0.040682651 0.72517353 -0.47935718 0.87023848
-17.466999 12.149 0.17399999 0.033828519 0.7223472 -0.49019733 0.87362653
-17.566 12.136 0.17299999 0.033329565 0.7143892 -0.49766791 0.87128419
-17.679001 12.173 0.17299999 0.094565518 0.70805025 -0.50243497 0.87333769
-17.771 12.155 0.17299999 0.10780807 0.71024716 -0.47051004 0.85875106
-18.452 12.534 0.17200001 0.14800051 0.70856071 -0.4959299 0.87744451
-18.402 12.416 0.17200001 0.24937859 0.6414274 -0.33064175 0.76350689
-18.344 12.294 0.17200001 0.16989842 0.6753372 -0.29196829 0.75511009
-18.747999 12.478 0.17200001 0.063176751 0.72730899 -0.48270795 0.87520087
-18.944 12.523 0.171 -0.029545557 0.73277235 -0.47185332 0.87205154
-19.030001 12.537 0.171 -0.055585951 0.7223357 -0.49138379 0.87539518
-19.157 12.534 0.171 -0.13608611 0.69321442 -0.45253944 0.8389622
-19.278 12.527 0.171 -0.078755312 0.67085868 -0.61915815 0.91630268
-19.43 12.539 0.171 0.035872485 0.36946744 0.024779886 0.372031
-19.646 12.591 0.17 0.10493463 0.70392483 -0.54605424 0.89704889
-19.334 12.306 0.171 -0.37315255 0.54661405 -0.36860746 0.7575627
-19.410999 12.226 0.171 -0.35989034 0.56491035 -0.42898324 0.79540646
-19.464001 12.175 0.171 -0.2606388 0.64210564 -0.43283221 0.81705326
-19.593 12.17 0.171 -0.089644179 0.7013278 -0.4751606 0.85186523
-19.74 12.175 0.171 -0.019234754 0.71112001 -0.4850575 0.8610124
-19.874001 12.171 0.17 0.0005130237 0.70831704 -0.48799562 0.86014712
-20.014 12.171 0.17 0.0026711067 0.71090072 -0.49097911 0.86397195
-20.139999 12.161 0.17 0.0094200857 0.71503723 -0.4923138 0.86818188
-20.264 12.192 0.17 0.00076135062 0.72407162 -0.49813384 0.87887293
-20.391001 12.181 0.17 0.0033986019 0.71905828 -0.48725635 0.86860526
-20.535999 12.18 0.169 -0.004406645 0.71881282 -0.49069268 0.87033933
-20.679001 12.178 0.169 -0.0091919154 0.72016877 -0.48535103 0.86850053
-20.825001 12.175 0.169 -0.010705536 0.72562313 -0.48044628 0.87032878
-20.972 12.173 0.169 0.026484327 0.7228896 -0.49102244 0.87428474
-21.122999 12.172 0.169 0.041182861 0.72377169 -0.48259413 0.87088382
-21.246 12.198 0.169 0.10686057 0.71582276 -0.46845329 0.86213106
-22.146 12.622 0.167 0.14332987 0.6291306 -0.14583871 0.6615268
-21.882999 12.381 0.168 0.23885313 0.66389197 -0.30708116 0.76948178
-21.941 12.323 0.167 0.14627257 0.67851609 -0.25064903 0.73797339
-22.605 12.602 0.16599999 0.11054584 0.71039164 -0.21992996 0.75182831
-22.775999 12.603 0.16599999 0.031465363 0.76330924 -0.18434899 0.78588527
-22.927999 12.593 0.16599999 -0.03076778 0.77661979 -0.24842654 0.81596613
-23.093 12.637 0.16599999 -0.12844852 0.73931992 -0.1983626 0.77617055
-23.222 12.613 0.16599999 -0.34619808 0.61650264 -0.23357573 0.74463832
-23.252001 12.253 0.16599999 -0.27234429 0.66663206 -0.44674361 0.84743702
-23.306 12.188 0.16599999 -0.055747233 0.75006318 -0.46163875 0.88250375
-23.458 12.221 0.16500001 -0.018972374 0.74774635 -0.46989971 0.88334042
-23.624001 12.213 0.16500001 0.020460742 0.74182224 -0.48925272 0.88886845
-23.806999 12.212 0.16500001 -0.055699676 0.82409275 -0.41304293 0.92349106
-23.986 12.209 0.16500001 -0.092305906 0.82010019 -0.39503399 0.91495168
-24.083 12.163 0.16500001 -0.14051376 0.80941778 -0.39047769 0.90960109
-24.107 12.08 0.16500001 -0.15236273 0.8061313 -0.38194799 0.90495658
-15.888 12.177 0.048 0.53433144 0.011396334 -0.42361668 0.68197584
-15.907 12.112 0.048 0.53555548 0.013052762 -0.45063999 0.70004743
-15.982 12.09 0.048 0.48005423 -0.074883223 -0.51162004 0.70555979
-16.082001 12.087 0.046999998 -0.043031156 0.70010567 -0.46344912 0.84070492
-16.389999 12.119 0.045000002 0.086071223 0.71199536 -0.41015303 0.82617867
-16.489 12.112 0.045000002 0.038220309 0.71464825 -0.4175224 0.82855767
-16.593 12.109 0.044 0.031876668 0.71437389 -0.41170555 0.82513493
-16.683001 12.094 0.044 0.032357588 0.71425289 -0.40998232 0.82419032
-16.805 12.103 0.043000001 0.02876031 0.71339864 -0.40121144 0.81898433
-16.898001 12.089 0.041999999 0.049659301 0.71391022 -0.40495431 0.82226628
-17.219999 12.116 0.039999999 0.053229861 0.72212589 -0.4491711 0.85208797
-17.337999 12.119 0.039000001 0.029240418 0.72648728 -0.45475835 0.8575803
-17.447001 12.113 0.039000001 0.034438863 0.72163415 -0.45631099 0.85449493
-17.565001 12.114 0.037999999 0.036754452 0.72493029 -0.45394072 0.85611737
-17.664 12.101 0.037 0.07965187 0.71627384 -0.46666068 0.85858303
-17.966 12.266 0.034000002 0.17855948 0.69093496 -0.44326103 0.84009224
-18.327999 12.43 0.030999999 0.26229778 0.65456867 -0.46755755 0.84609121
-18.218 12.272 0.033 0.31457353 0.61881775 -0.48130378 0.84471607
-18.296 12.241 0.032000002 0.26996619 0.65110862 -0.44479296 0.83346564
-18.775999 12.477 0.028000001 0.034003995 0.71902764 -0.46628994 0.85766155
-18.922001 12.489 0.027000001 0.011353056 0.72150737 -0.48123312 0.86734486
-19.025999 12.472 0.027000001 -0.094683878 0.7187891 -0.44904083 0.85279566
-19.143999 12.507 0.026000001 -0.082756996 0.70047629 -0.51331139 0.87235564
-19.245001 12.487 0.025 -0.25943404 0.63858372 -0.47030896 0.83443737
-19.448 12.532 0.024 0.40029261 0.48816186 -0.45982158 0.78100705
-19.473 12.462 0.024 0.4590936 0.04441011 -0.41980606 0.6236797
-19.348 12.211 0.026000001 0.36943844 -0.10266624 -0.38549891 0.54372287
-19.365999 12.138 0.026000001 -0.30378228 0.61549246 -0.49751347 0.84772301
-19.445999 12.145 0.025 -0.22162071 0.66224408 -0.50362432 0.86099964
-19.580999 12.144 0.024 -0.10329814 0.69699013 -0.50416982 0.86640227
-19.716 12.143 0.023 -0.01961121 0.70176584 -0.4961496 0.85966527
-19.844999 12.136 0.023 -0.0022680443 0.7146377 -0.47868115 0.86014402
-19.985001 12.136 0.022 -0.0060315072 0.71042442 -0.48037398 0.85761201
-20.124001 12.134 0.021 0.0022021625 0.71382427 -0.47943163 0.85988641
-20.26 12.13 0.02 0.0071641384 0.71310914 -0.48426723 0.86202711
-20.384001 12.16 0.018999999 0.0060717207 0.72068244 -0.48768851 0.87020695
-20.525 12.158 0.017999999 -0.0022371518 0.7207402 -0.48770934 0.87024814
-20.667999 12.155 0.017000001 -0.010057293 0.7237125 -0.48134479 0.86922592
-20.808001 12.15 0.016000001 -0.0068431357 0.72409195 -0.47575036 0.86642623
-20.959999 12.151 0.015 0.0032312847 0.72828257 -0.46881208 0.86613548
-21.108 12.148 0.014 0.060119357 0.7243855 -0.48172531 0.87201375
-21.364 12.206 0.012 0.13625218 0.70667404 -0.50543261 0.87944013
-22.097 12.58 0.0049999999 0.29337293 0.6264677 -0.29339737 0.75140631
-21.796 12.318 0.0089999996 0.26702353 0.6529305 -0.44931063 0.83636105
-22.143 12.423 0.0060000001 0.181861 0.6726253 -0.28419745 0.75250673
-22.603001 12.588 0.0020000001 0.065607697 0.75586832 -0.34311762 0.83268899
-22.754 12.579 0.001 0.042918157 0.74811769 -0.33155915 0.81942266
-22.896999 12.564 0 -0.047162086 0.74674797 -0.35607839 0.82864261
-23.08 12.571 -0.001 -0.29962751 0.6840418 -0.29535595 0.80307221
-23.181 12.578 -0.0020000001 0.45075381 0.075355828 -0.38887474 0.60006756
-23.131001 12.364 -0.001 0.41693565 -0.037316859 -0.44208169 0.60882193
-23.194 12.211 -0.001 0.42258275 -0.056963593 -0.42173913 0.59973735
-23.285 12.165 -0.001 -0.089729786 0.72248679 -0.47235331 0.86784577
-23.454 12.16 -0.0020000001 -0.019787699 0.74768424 -0.46970746 0.88320345
-23.638 12.162 -0.0040000002 0.036570493 0.74208415 -0.48540518 0.88749337
-23.785 12.191 -0.0049999999 -0.026038691 0.76037765 -0.4555268 0.88676763
-23.968 12.189 -0.0060000001 -0.073834345 0.82213509 -0.41080612 0.92201912
-24.073999 12.148 -0.0070000002 -0.1462394 0.80723774 -0.40403336 0.91447347
-15.217 12.227 -0.068000004 0.33146662 0.63304639 -0.45446876 0.84685284
-15.56 12.422 -0.074000001 0.20668271 0.67932475 -0.48364133 0.85913259
-15.699 12.453 -0.075000003 0.5101459 -0.061122507 -0.49179164 0.711227
-15.815 12.464 -0.077 0.52072567 -0.005963102 -0.49252138 0.71677619
-15.895 12.446 -0.077 0.51578742 -0.0080918819 -0.52382892 0.73518634
-16.007 12.452 -0.079000004 0.52670854 0.0086105019 -0.49763852 0.72466552
-15.817 12.225 -0.075000003 0.50469238 -0.047565266 -0.44467384 0.67432314
-15.872 12.228 -0.075000003 0.51762015 -0.02359274 -0.47018477 0.69968635
-15.893 12.165 -0.075000003 0.52569067 -0.0063159615 -0.47232547 0.70674032
-15.922 12.108 -0.075000003 0.49027237 -0.06670469 -0.47368687 0.68497866
-15.999 12.088 -0.075999998 0.44008881 -0.12973833 -0.45907772 0.64904737
-16.097 12.082 -0.077 -0.057885863 0.69643587 -0.46198791 0.83773893
-16.405001 12.113 -0.079999998 0.080411211 0.71339542 -0.42174321 0.83262616
-16.513 12.112 -0.081 0.043950461 0.71381038 -0.42397749 0.83139271
-16.614 12.106 -0.082999997 0.038584836 0.71513021 -0.421772 0.83113873
-16.715 12.099 -0.083999999 0.041088827 0.71511632 -0.4212144 0.83096403
-16.826 12.099 -0.085000001 0.044389877 0.71504813 -0.41996041 0.83044028
-16.938999 12.099 -0.086000003 0.044582617 0.71537238 -0.42624107 0.83392251
-17.243999 12.114 -0.090000004 0.048545703 0.7234115 -0.43300214 0.844495
-17.360001 12.114 -0.090999998 0.014269553 0.72178781 -0.44202569 0.84650338
-17.468 12.108 -0.092 0.037001897 0.72163683 -0.446109 0.84920084
-17.59 12.111 -0.093999997 0.028959092 0.72097707 -0.45208797 0.85148698
-17.676001 12.088 -0.094999999 0.069872044 0.71774256 -0.45935106 0.85500872
-18.297001 12.427 -0.104 0.32708457 0.60991907 -0.48653361 0.84599084
-18.311001 12.395 -0.104 0.32708457 0.60991907 -0.48653361 0.84599084
-18.239 12.263 -0.103 0.30111337 0.63037735 -0.4501456 0.83106917
-18.365999 12.264 -0.104 0.43740964 0.47516751 -0.44634378 0.78506953
-18.819 12.481 -0.111 0.026195962 0.72360229 -0.46645296 0.86131579
-18.934999 12.473 -0.112 -0.014364947 0.72600061 -0.46805423 0.86392015
-19.062 12.47 -0.114 -0.098318703 0.70601588 -0.47911012 0.85887802
-19.183001 12.463 -0.115 -0.20119558 0.67420769 -0.49209031 0.85859686
-19.195999 12.429 -0.115 -0.19572383 0.67835754 -0.48260716 0.85521138
-19.507 12.543 -0.12 0.25328997 0.62967432 -0.45860967 0.81912661
-19.290001 12.319 -0.115 -0.36890137 0.55999947 -0.45121717 0.8082602
-19.290001 12.233 -0.115 0.36795604 -0.11154325 -0.46628204 0.60436124
-19.351999 12.188 -0.115 0.36838111 -0.11126296 -0.44998565 0.59209055
-19.378 12.119 -0.115 -0.23405823 0.65676546 -0.48904705 0.85164028
-19.503 12.112 -0.116 -0.12959382 0.70036846 -0.47234708 0.85464746
-19.615999 12.139 -0.118 -0.064261295 0.70918339 -0.48215902 0.85996974
-19.757999 12.141 -0.12 0.00075569283 0.71122581 -0.46102676 0.84757799
-19.889999 12.136 -0.121 -0.003642207 0.71538484 -0.4562133 0.84848064
-20.02 12.13 -0.123 -0.0023452681 0.71442425 -0.46148634 0.85051584
-20.167999 12.133 -0.124 0.0054985997 0.71358478 -0.46422651 0.85131645
-20.295 12.122 -0.126 0.0049401415 0.71974218 -0.46044663 0.85443801
-20.447001 12.126 -0.12800001 -0.0018708166 0.72693366 -0.45947745 0.85997421
-20.563999 12.152 -0.12899999 0.008951243 0.72700942 -0.45524156 0.85782731
-20.698999 12.143 -0.131 -0.0012507369 0.72490108 -0.45221251 0.85438824
-20.841999 12.14 -0.133 -0.0012468137 0.72490191 -0.45213211 0.85434639
-21.004999 12.146 -0.13500001 0.017382573 0.72822714 -0.45695806 0.85989976
-21.132 12.131 -0.13600001 0.034560811 0.728697 -0.45638999 0.86051476
-21.983 12.527 -0.149 0.36112973 0.59135056 -0.42969367 0.81532001
-21.959999 12.422 -0.148 0.35199738 0.59727073 -0.42529982 0.81333536
-21.844999 12.267 -0.146 0.26761582 0.65512073 -0.4392989 0.83293754
-22.472 12.572 -0.155 0.12401184 0.72503221 -0.42797971 0.85100955
-22.646 12.576 -0.15800001 -0.015092535 0.73239511 -0.44755191 0.85844809
-22.808001 12.572 -0.16 -0.075617269 0.75305653 -0.43180612 0.87136024
-22.965 12.565 -0.161 -0.12608823 0.73627067 -0.43039876 0.86211121
-23.094 12.541 -0.163 0.36727062 -0.095801473 -0.4147462 0.56220996
-23.26 12.537 -0.16500001 0.48409861 0.10002808 -0.48320135 0.69126016
-23.094999 12.308 -0.161 0.42316324 -0.055176854 -0.47161093 0.63602555
-23.183001 12.261 -0.162 0.42971018 -0.047235906 -0.42970961 0.60953462
-23.200001 12.177 -0.162 0.38989189 -0.10079406 -0.44494882 0.60012883
-23.339001 12.157 -0.163 -0.15561992 0.7017861 -0.45084754 0.84851915
-23.504999 12.149 -0.16500001 -0.019931059 0.74270833 -0.44792095 0.8675518
-23.691 12.151 -0.168 0.0046889298 0.74388099 -0.45748112 0.87330973
-23.868 12.147 -0.17 -0.0143625 0.76135522 -0.45212373 0.88559806
-24.028 12.181 -0.17200001 -0.090136789 0.8197242 -0.40981233 0.92087924
-24.025999 12.085 -0.171 -0.06994848 0.75483364 -0.45740256 0.88537204
-15.212 12.238 -0.204 0.28590208 0.65442294 -0.45740476 0.84807342
-15.332 12.255 -0.206 0.32110375 0.63646197 -0.47232857 0.85515249
-15.68 12.494 -0.215 0.1120507 0.69566852 -0.40885475 0.81466085
-15.781 12.493 -0.21699999 -0.29392445 0.54599148 -0.41567081 0.74651223
-15.922 12.524 -0.22 0.54654551 0.068026081 -0.5079304 0.7492215
-15.944 12.461 -0.219 0.51049834 -0.0045814514 -0.5583232 0.75654107
-15.915 12.358 -0.21699999 0.49186152 -0.041649386 -0.55512691 0.7428515
-15.878 12.249 -0.215 0.50347507 -0.043068141 -0.49506259 0.70741004
-15.904 12.15 -0.215 0.5279929 -0.00098134577 -0.47677356 0.71140039
-15.975 12.125 -0.215 0.46056655 -0.099518344 -0.45818985 0.6572392
-16.059 12.11 -0.21699999 -0.18474901 0.6430921 -0.43446702 0.79778516
-16.27 12.109 -0.22 0.075089671 0.71591532 -0.43455288 0.84083855
-16.372 12.106 -0.222 0.085471146 0.71574551 -0.43428084 0.84154427
-16.476 12.103 -0.22400001 0.062840335 0.70979714 -0.44097716 0.83798677
-16.556 12.122 -0.22499999 0.052169438 0.71428132 -0.43771031 0.83935082
-16.68 12.132 -0.227 0.040973179 0.71554458 -0.43049794 0.83606899
-16.775 12.121 -0.229 0.039428897 0.71545553 -0.42844808 0.83486468
-16.899 12.13 -0.23100001 0.042155474 0.7155109 -0.42950782 0.83558959
-16.995001 12.119 -0.233 0.048047964 0.71574306 -0.43786925 0.84043217
-17.211 12.111 -0.236 0.050550692 0.72078854 -0.44324642 0.84767854
-17.309 12.139 -0.23800001 0.035342418 0.72353929 -0.43313047 0.84401429
-17.414 12.131 -0.23999999 0.020211089 0.72164309 -0.43245101 0.84154093
-17.535999 12.135 -0.242 0.029813737 0.72150183 -0.43007293 0.84048587
-17.642 12.126 -0.244 0.012228327 0.72111338 -0.43452868 0.84200311
-17.825001 12.17 -0.24699999 0.11442273 0.71041447 -0.46042484 0.85426712
-18.414 12.488 -0.26100001 0.21644837 0.68184209 -0.43067604 0.83500922
-18.325001 12.344 -0.25799999 0.27369335 0.65055251 -0.45397234 0.83917671
-18.285999 12.276 -0.257 0.40473172 0.52382022 -0.45129725 0.80116451
-18.721001 12.483 -0.26699999 0.021359632 0.72079819 -0.44467112 0.84719455
-18.889999 12.511 -0.27000001 0.025645221 0.72589016 -0.43407002 0.8461625
-18.996 12.495 -0.27200001 -0.029841889 0.71205771 -0.43163097 0.83319986
-19.132 12.499 -0.27399999 -0.20686084 0.6712687 -0.40660045 0.81161386
-19.247999 12.489 -0.27599999 -0.12744048 0.69946313 -0.48816958 0.86243796
-19.389999 12.495 -0.27900001 -0.24750532 0.65104854 -0.51376784 0.86549437
-19.551001 12.555 -0.28200001 0.29082632 0.61265516 -0.41753128 0.79640359
-19.273001 12.291 -0.27399999 0.36155108 -0.11757679 -0.48699501 0.61782491
-19.367001 12.181 -0.27500001 -0.35793611 0.56112456 -0.36819753 0.76062369
-19.424999 12.132 -0.27500001 -0.3061319 0.6102246 -0.38247371 0.78254515
-19.559 12.13 -0.27700001 -0.088012815 0.70741826 -0.43160376 0.83334786
-19.698999 12.132 -0.28 -0.0094734067 0.71263671 -0.43956563 0.83735222
-19.839001 12.133 -0.28299999 -0.00046657771 0.71647817 -0.43493813 0.8381601
-19.950001 12.158 -0.285 -0.012880711 0.71513104 -0.43350419 0.83636367
-20.087 12.155 -0.287 -0.0078193881 0.72191274 -0.42979768 0.84020543
-20.226 12.153 -0.28999999 0.0021787635 0.71631938 -0.43829525 0.83977431
-20.361 12.147 -0.292 -0.0038308757 0.72611374 -0.43826595 0.84813493
-20.504999 12.146 -0.29499999 0.0043945871 0.72697997 -0.43757978 0.84852535
-20.642 12.14 -0.29699999 0.0086455485 0.72697884 -0.43354207 0.84648198
-20.787001 12.137 -0.30000001 -0.0017738473 0.72707069 -0.42991212 0.84466523
-20.913 12.167 -0.30199999 -0.0073881913 0.72462165 -0.42850626 0.84187216
-21.056 12.162 -0.30500001 0.0014295429 0.72860181 -0.42681998 0.84441572
-21.231001 12.175 -0.308 0.034346808 0.72990078 -0.44206616 0.85402417
-22.058001 12.558 -0.32699999 0.32974109 0.60425162 -0.4598853 0.82785487
-21.827999 12.336 -0.32100001 0.37488064 0.5602845 -0.47826159 0.82655209
-21.908001 12.291 -0.322 0.36063763 0.57178175 -0.50694436 0.8449772
-22.575001 12.573 -0.33700001 -4.2465399e-05 0.73404658 -0.43542916 0.85347694
-22.716999 12.605 -0.34 -0.0054912632 0.73255378 -0.43528849 0.85213923
-22.855 12.588 -0.34200001 -0.064529642 0.75417584 -0.41379946 0.86265594
-23.042999 12.598 -0.34599999 -0.13452965 0.73371029 -0.43673438 0.86438757
-23.150999 12.563 -0.347 -0.3482056 0.60100293 -0.39740551 0.80023921
-23.136 12.367 -0.345 0.42206189 -0.048338264 -0.51682878 0.66901779
-23.173 12.247 -0.34400001 0.4393155 -0.03456901 -0.46546006 0.64097285
-23.245001 12.191 -0.345 -0.33528098 0.58402193 -0.39509457 0.78076547
-23.409 12.184 -0.34799999 -0.10257313 0.71364838 -0.41609573 0.83243674
-23.58 12.179 -0.35100001 -0.000218153 0.74402934 -0.42078707 0.85477567
-23.759001 12.177 -0.35499999 -0.011606732 0.74342728 -0.42879915 0.85830504
-23.929001 12.17 -0.35800001 -0.03753183 0.76021975 -0.4320659 0.87522781
-24.031 12.127 -0.359 -0.04337316 0.75963789 -0.4257617 0.8718968
-24.045 12.087 -0.359 -0.069457248 0.75592762 -0.43182659 0.87334132
-15.306 12.261 -0.30700001 0.32063818 0.63654697 -0.47557747 0.85684001
-15.693 12.489 -0.31799999 0.1193004 0.6944859 -0.42443928 0.82261288
-15.81 12.502 -0.32100001 -0.19955975 0.61907935 -0.37819019 0.75240356
-15.945 12.527 -0.324 0.52051491 -0.0032314956 -0.50637698 0.7261982
-15.97 12.466 -0.324 0.52699351 0.019419208 -0.52874315 0.74677211
-16.035999 12.476 -0.32499999 0.52079612 -0.0077688694 -0.48079282 0.70883757
-15.871 12.268 -0.31799999 0.51690578 -0.0085225403 -0.48833379 0.71114987
-15.971 12.187 -0.31900001 0.52093732 -0.0027278364 -0.47252509 0.70332289
-16 12.129 -0.31900001 -0.2251524 0.61496449 -0.41146109 0.77341783
-16.073 12.105 -0.31999999 -0.14850542 0.66228694 -0.42407733 0.80032456
-16.177 12.104 -0.322 -0.011968948 0.70885503 -0.4484165 0.83886594
-16.377001 12.133 -0.32699999 0.081381485 0.71400547 -0.44436729 0.84491956
-16.502001 12.145 -0.33000001 0.065754518 0.70982176 -0.44659573 0.84120053
-16.59 12.13 -0.331 0.049061224 0.71581733 -0.44283766 0.84315276
-16.712 12.139 -0.33399999 0.045183402 0.71579063 -0.43921414 0.84101534
-16.804001 12.125 -0.336 0.039706219 0.715756 -0.43793118 0.84003985
-16.924999 12.131 -0.338 0.041799329 0.71580464 -0.4398489 0.84118402
-17.000999 12.145 -0.34 0.04884202 0.71576774 -0.43948185 0.84134018
-17.101 12.136 -0.34200001 0.054786578 0.71901232 -0.44773129 0.84878951
-17.336 12.139 -0.347 0.040525932 0.71705776 -0.45133248 0.8482424
-17.471001 12.152 -0.34999999 0.028775141 0.72177732 -0.44077834 0.8462128
-17.563 12.134 -0.352 0.026451681 0.71750277 -0.44179115 0.8430239
-17.695 12.143 -0.35499999 0.015250015 0.72110623 -0.43479046 0.84218138
-17.77 12.154 -0.35699999 0.024312915 0.72113281 -0.44930878 0.85000116
-18.382999 12.487 -0.375 0.21895535 0.68088722 -0.44842914 0.84417862
-18.304001 12.35 -0.37099999 0.26827964 0.65377426 -0.45829552 0.84227639
-18.341 12.291 -0.37099999 0.26571164 0.64872777 -0.46086714 0.83895701
-18.665001 12.423 -0.38 0.092161387 0.71522009 -0.4260771 0.83760083
-18.919001 12.506 -0.38699999 0.01588738 0.73078418 -0.42978927 0.84794855
-19.032 12.495 -0.389 -0.052265674 0.71374625 -0.4384295 0.83927697
-19.152 12.531 -0.39199999 -0.11025414 0.70180351 -0.4236418 0.82713753
-19.253 12.511 -0.39399999 -0.12538102 0.69975746 -0.49061599 0.86376214
-19.381001 12.507 -0.39700001 -0.35360637 0.57951647 -0.45690903 0.818317
-19.584 12.551 -0.40200001 0.47805789 0.088431127 -0.4179109 0.64109975
-19.327999 12.302 -0.39300001 0.38257429 -0.087944925 -0.48395848 0.62314785
-19.423 12.192 -0.39300001 0.36481231 -0.11510581 -0.4988142 0.62861192
-19.468 12.135 -0.39399999 -0.22033137 0.66670811 -0.44966081 0.83381081
-19.583 12.163 -0.396 -0.13661928 0.69527394 -0.42872396 0.82817566
-19.723 12.164 -0.40000001 -0.019302193 0.7091403 -0.45282137 0.84160548
-19.846001 12.155 -0.40200001 0.0086966846 0.71308249 -0.45350811 0.8451224
-19.985001 12.153 -0.405 -0.0027572499 0.72050083 -0.44525027 0.84698105
-20.129999 12.154 -0.40799999 -0.0040583313 0.71498412 -0.44245005 0.8408215
-20.264 12.149 -0.41100001 -0.007242131 0.71629065 -0.44444352 0.84300345
-20.412001 12.15 -0.41499999 -0.0018323651 0.72756952 -0.44137231 0.85098195
-20.531 12.177 -0.41800001 0.008790574 0.72755742 -0.44490981 0.85285509
-20.667 12.17 -0.421 0.01153966 0.72702432 -0.44410872 0.85201526
-20.812 12.168 -0.42399999 0.0018959465 0.72724527 -0.44082916 0.85042316
-20.955999 12.163 -0.42699999 0.0019784914 0.72713232 -0.43382674 0.84671777
-21.094999 12.155 -0.43000001 0.00017857784 0.73080122 -0.4285751 0.84719956
-21.254 12.158 -0.43399999 0.0038450914 0.73091125 -0.43187779 0.84897846
-22.084 12.54 -0.458 0.36637366 0.57070625 -0.471964 0.82624775
-21.855 12.365 -0.44999999 0.37572089 0.56028032 -0.46826527 0.82118976
-21.934999 12.319 -0.45100001 0.37657842 0.55927849 -0.46830997 0.82092506
-22.58 12.588 -0.46900001 0.015181197 0.73377651 -0.44951674 0.8606531
-22.742001 12.584 -0.47299999 0.0022575399 0.73179877 -0.4480463 0.85806763
-22.889999 12.572 -0.47600001 -0.10533236 0.7417469 -0.43461868 0.86612749
-23.073999 12.579 -0.48100001 -0.16537647 0.72292954 -0.4136543 0.849168
-23.194 12.55 -0.48300001 0.40964696 -0.0466986 -0.45003235 0.61034459
-23.344 12.584 -0.48699999 0.47734416 0.10242632 -0.41262844 0.63922673
-23.188999 12.407 -0.48100001 0.45127618 -0.013049603 -0.44187641 0.631724
-23.243999 12.249 -0.47999999 0.39208803 -0.09750326 -0.46565637 0.61650282
-23.285999 12.177 -0.48100001 -0.21900955 0.67245799 -0.41444328 0.81971222
-23.455 12.172 -0.484 -0.089942411 0.71684539 -0.4633396 0.85827768
-23.627001 12.167 -0.48800001 -0.0061380118 0.73943841 -0.43813473 0.85951668
-23.754 12.185 -0.491 -0.012155896 0.74346125 -0.42805254 0.85796928
-24.054001 12.148 -0.498 -0.078380674 0.75427282 -0.41417024 0.86406481
-24.09 12.072 -0.498 -0.081294812 0.75377059 -0.416664 0.86509413
-15.223 12.245 -0.421 0.29470712 0.64916301 -0.47613096 0.85730135
-15.419 12.323 -0.42699999 0.33526552 0.62879908 -0.46956596 0.85339528
-15.714 12.479 -0.43799999 0.072839551 0.69633669 -0.47708708 0.84723222
-15.816 12.479 -0.44 0.50165832 -0.069148302 -0.44034326 0.67107731
-15.923 12.482 -0.44299999 0.52244568 -0.0046852529 -0.42599392 0.67412335
-15.989 12.453 -0.44400001 0.53643262 0.027900606 -0.43743077 0.69273669
-15.846 12.262 -0.43700001 0.50640291 -0.031452104 -0.42924571 0.66459388
-15.865 12.237 -0.43700001 0.50901103 -0.027189806 -0.43703169 0.67143744
-15.912 12.193 -0.43700001 0.53093588 0.018169701 -0.43310452 0.68542147
-15.931 12.129 -0.43599999 0.53616971 0.014839187 -0.43076706 0.6879378
-16.007 12.108 -0.43799999 -0.19071075 0.63921767 -0.46587279 0.81363827
-16.083 12.086 -0.44 -0.059688255 0.69801217 -0.46098098 0.83862221
-16.313999 12.101 -0.44600001 0.070821606 0.71597296 -0.45268375 0.85003263
-16.403999 12.127 -0.449 0.07601095 0.70733118 -0.45950878 0.84690225
-16.507999 12.124 -0.45100001 0.069037348 0.70972759 -0.45604691 0.84643853
-16.603001 12.114 -0.45300001 0.067576125 0.70973706 -0.45804611 0.84740752
-16.719999 12.119 -0.45699999 0.043737397 0.71580744 -0.45792088 0.85087293
-16.818001 12.11 -0.45899999 0.039665885 0.71583796 -0.45511857 0.84919393
-16.934999 12.114 -0.46200001 0.04040058 0.71767628 -0.4517529 0.84898299
-17.021999 12.095 -0.46399999 0.04308052 0.71766168 -0.45449001 0.8505618
-17.233 12.123 -0.47 0.053421319 0.71222079 -0.46178168 0.85050255
-17.358999 12.131 -0.47299999 0.041034561 0.71693563 -0.46008825 0.85285503
-17.462999 12.122 -0.47600001 0.029197788 0.7217201 -0.45739707 0.85495293
-17.579 12.122 -0.479 0.02276668 0.71755016 -0.45849636 0.85183066
-17.677 12.107 -0.48100001 0.01529723 0.72275251 -0.45377982 0.85353458
-18.114 12.324 -0.49700001 0.39023507 0.5556944 -0.45598042 0.81792289
-18.431 12.456 -0.50800002 0.16944498 0.7035023 -0.47173208 0.86380452
-18.245001 12.288 -0.5 0.39778161 0.53844655 -0.46301153 0.81396222
-18.316999 12.253 -0.50099999 0.30875337 0.61650604 -0.49853408 0.85084933
-18.785 12.481 -0.51700002 0.070593521 0.71834296 -0.47311926 0.86304224
-18.934 12.495 -0.52200001 -0.0047349092 0.7116583 -0.49768358 0.86842895
-19.058001 12.491 -0.52499998 -0.12449998 0.68845004 -0.53434503 0.8803342
-19.188 12.49 -0.528 -0.20096375 0.66353124 -0.57154626 0.89851278
-19.285 12.468 -0.53100002 -0.20465285 0.6455152 -0.62086588 0.91872036
-19.436001 12.522 -0.53600001 0.31173775 -0.10706738 -0.24316575 0.40960154
-19.433001 12.434 -0.53399998 0.39155337 -0.057727769 -0.33873856 0.52095139
-19.313999 12.272 -0.528 0.34940419 -0.12374619 -0.36562401 0.52065086
-19.371 12.223 -0.52899998 0.34455457 -0.13091925 -0.3736921 0.52488428
-19.384001 12.146 -0.528 0.3230046 -0.15482655 -0.39497891 0.53320879
-19.486 12.126 -0.52999997 -0.20523904 0.67315733 -0.46620956 0.84416544
-19.624001 12.127 -0.53399998 -0.096295536 0.70030624 -0.4581897 0.84240097
-19.733999 12.151 -0.537 -0.026643466 0.70883727 -0.46583194 0.84862214
-19.867001 12.148 -0.54100001 0.016263185 0.71712434 -0.46231294 0.85338449
-20.004 12.146 -0.54500002 0.0024578264 0.7212587 -0.45831835 0.85456181
-20.145 12.145 -0.54900002 -0.00078619958 0.71491969 -0.45220363 0.84593076
-20.281 12.14 -0.55199999 -0.0074238488 0.71632671 -0.44938251 0.8456499
-20.417 12.135 -0.55599999 -0.007120274 0.72248065 -0.45012185 0.85125715
-20.565001 12.135 -0.56 0.003732603 0.72767997 -0.44456556 0.85274297
-20.694 12.168 -0.56400001 0.0086882841 0.72706181 -0.45265681 0.85650015
-20.834 12.163 -0.56800002 0.0053641489 0.7271592 -0.45173177 0.85606706
-20.976 12.157 -0.57200003 0.0068736179 0.7271412 -0.45016733 0.85523808
-21.125999 12.156 -0.57599998 0.0054642162 0.7308749 -0.4493764 0.85799021
-21.316999 12.177 -0.58099997 0.0109246 0.73019123 -0.44085878 0.85302699
-22.049999 12.505 -0.60699999 0.36943394 0.56291783 -0.43298218 0.80051953
-21.827 12.288 -0.597 0.34237728 0.5965457 -0.43583941 0.81427568
-22.115999 12.405 -0.60699999 0.38713869 0.54456961 -0.41763783 0.78794277
-22.603001 12.586 -0.62400001 0.007959391 0.73367208 -0.46027628 0.86613643
-22.777 12.59 -0.62900001 -0.0047427155 0.73155433 -0.46118161 0.86480212
-22.906 12.567 -0.63200003 -0.072951555 0.7284646 -0.43869686 0.85348552
-23.098 12.579 -0.63700002 -0.26003274 0.67461562 -0.40663168 0.82950139
-23.177999 12.528 -0.639 0.41879311 -0.03862673 -0.45824489 0.62198722
-23.139999 12.367 -0.63499999 0.44211945 -0.030351654 -0.46231437 0.64041036
-23.195999 12.21 -0.63499999 0.43578508 -0.040919766 -0.45071101 0.62827021
-23.302 12.172 -0.63700002 -0.22674049 0.66951704 -0.44882149 0.83732015
-23.487 12.175 -0.64200002 -0.061834104 0.72063577 -0.44362944 0.84849656
-23.646 12.164 -0.64700001 0.027951006 0.74037051 -0.44283202 0.86315113
-23.798 12.148 -0.65100002 -0.014918461 0.73866868 -0.42566505 0.85266918
-24.006001 12.206 -0.65799999 -0.06624347 0.75646603 -0.43097857 0.8731389
