# .PCD v0.7 - Point Cloud Data file format
VERSION 0.7
FIELDS x y z normal_x normal_y normal_z curvature
SIZE 4 4 4 4 4 4 4
TYPE F F F F F F F
COUNT 1 1 1 1 1 1 1
WIDTH 70
HEIGHT 1
VIEWPOINT 0 0 0 1 0 0 0
POINTS 70
DATA ascii
23.733 -7.7550001 1.053 -0.40879673 0.029755384 -0.33827946 0.53144443
23.780001 -7.6880002 1.054 -0.40879673 0.029755384 -0.33827946 0.53144443
23.771999 -7.6030002 1.053 -0.40879777 0.029755026 -0.33827919 0.53144497
23.805 -7.5310001 1.053 -0.40410981 0.036748677 -0.31823224 0.51568109
23.975 -7.5440001 1.059 -0.40631998 0.018611044 -0.26710385 0.4866074
23.957001 -7.4549999 1.058 -0.36983979 0.061444908 -0.2753163 0.46514085
23.587999 -7.789 0.89099997 0.44362059 -0.46311563 -0.44446561 0.78027242
23.731001 -7.7529998 0.89499998 0.35933322 -0.60639751 -0.44002798 0.83094102
23.757 -7.6789999 0.89499998 0.35690159 -0.60918939 -0.44111919 0.8325122
23.76 -7.598 0.89399999 0.35567939 -0.60338974 -0.4450627 0.82986009
23.691999 -7.494 0.89099997 0.35288203 -0.59602094 -0.45213887 0.82716155
23.997999 -7.5079999 0.89999998 -0.36618876 0.087935477 -0.42646337 0.56894451
23.68 -7.7919998 0.77600002 0.40971276 -0.5342316 -0.43411428 0.80107623
23.764 -7.737 0.77700001 0.33160749 -0.63844967 -0.40524328 0.82571399
23.797001 -7.665 0.778 -0.35162997 0.097415954 -0.42206025 0.55791432
23.798 -7.5830002 0.77700001 -0.35378963 0.10101718 -0.43022913 0.56609952
23.767 -7.4910002 0.77600002 -0.35433772 0.11399171 -0.43837553 0.57508475
23.625999 -7.7940001 0.58600003 0.38254011 -0.56598425 -0.44288611 0.81413954
23.684999 -7.7309999 0.58700001 -0.36581019 0.094604701 -0.43568212 0.57670271
23.745001 -7.7090001 0.58700001 -0.36354655 0.098945916 -0.43861938 0.5782243
23.742001 -7.6259999 0.58700001 0.31980211 -0.62258989 -0.40627611 0.80929095
23.830999 -7.572 0.588 -0.30065122 0.1527302 -0.47133854 0.57954955
24.030001 -7.553 0.59100002 -0.2308324 0.18713045 -0.51042837 0.59062552
23.573 -7.8460002 0.458 0.3565377 -0.59179777 -0.41925904 0.80815959
23.598 -7.7719998 0.458 0.33825412 -0.61408186 -0.41181555 0.81308323
23.723 -7.73 0.45899999 -0.32110694 0.14045131 -0.46388763 0.58140177
23.747 -7.6560001 0.45899999 -0.32110694 0.14045131 -0.46388763 0.58140177
23.757999 -7.5770001 0.45899999 -0.32161298 0.14702585 -0.46778864 0.58641088
23.969999 -7.5609999 0.461 -0.20878482 0.1981729 -0.49011093 0.56839454
23.556999 -7.8270001 0.285 0.34682301 -0.60474569 -0.37465075 0.79143333
23.677999 -7.7849998 0.285 -0.34126717 0.12562564 -0.4513267 0.57960409
23.698999 -7.71 0.285 -0.33098203 0.14091793 -0.45428547 0.57946724
23.688999 -7.6240001 0.285 -0.32832384 0.14031258 -0.45497462 0.57834768
24.042 -7.6550002 0.28600001 -0.24683356 0.1858843 -0.42684972 0.52695394
23.681999 -7.809 0.168 0.36268684 -0.57841492 -0.39112949 0.78682137
23.792 -7.763 0.168 -0.32062346 0.14237863 -0.43774372 0.56097293
23.832001 -7.6929998 0.168 -0.2900773 0.16812167 -0.45885658 0.56829488
23.806 -7.6020002 0.168 -0.28900754 0.1687817 -0.45893168 0.5680061
23.860001 -7.5370002 0.168 -0.28498998 0.1710985 -0.46028471 0.56776404
23.627001 -7.8189998 0.0099999998 0.37058967 -0.56152093 -0.39450696 0.77992195
23.714001 -7.7659998 0.0089999996 -0.34882984 0.12282848 -0.46382555 0.59321433
23.733999 -7.7309999 0.0089999996 -0.35576576 0.11724243 -0.4573833 0.59119755
23.737 -7.6500001 0.0089999996 -0.3579759 0.11472189 -0.45576152 0.59078455
23.767 -7.5770001 0.0089999996 -0.29909566 0.16071358 -0.41203156 0.53390735
23.959999 -7.5560002 0.0080000004 -0.20674254 0.22058666 -0.41234362 0.5113005
23.632999 -7.7909999 -0.14300001 0.38847718 -0.53909892 -0.41758367 0.78480458
23.747999 -7.7470002 -0.145 0.32061455 -0.61808008 -0.40873265 0.80739027
23.753 -7.6659999 -0.14399999 0.31993654 -0.61872071 -0.4086237 0.80755687
23.805 -7.6420002 -0.145 0.32272431 -0.60884213 -0.4142482 0.80401576
24.045 -7.6350002 -0.148 -0.21916845 0.21222249 -0.49558365 0.58195907
23.724001 -7.8099999 -0.31900001 -0.33466154 0.13349584 -0.46645746 0.58940822
23.764999 -7.7410002 -0.31900001 -0.29878762 0.15940255 -0.46736664 0.57716095
23.767 -7.6589999 -0.31799999 -0.29682177 0.17550355 -0.47684759 0.58846265
23.812 -7.5910001 -0.31900001 -0.28127304 0.18674617 -0.48518997 0.59109896
23.862 -7.566 -0.31999999 -0.26637799 0.19447707 -0.49071831 0.59125549
23.649 -7.8400002 -0.44499999 -0.3391082 0.13029209 -0.38613033 0.53015757
23.753 -7.7909999 -0.447 -0.33096656 0.13825074 -0.42821741 0.55858952
23.806 -7.7259998 -0.44800001 -0.28136605 0.18157031 -0.41694215 0.53476667
23.785 -7.678 -0.447 -0.28097072 0.18888098 -0.42096317 0.54021347
24.072001 -7.6869998 -0.454 -0.087638021 0.25898784 -0.43756798 0.51596594
24.351999 -7.6919999 -0.461 -0.0027424917 0.26180354 -0.35221964 0.43887049
23.658001 -7.8280001 -0.59299999 -0.31220135 0.13542649 -0.31265634 0.46212986
23.738001 -7.7719998 -0.59500003 -0.25159666 0.18718222 -0.33379981 0.45799604
23.764 -7.698 -0.59500003 -0.19372635 0.2267988 -0.3706131 0.47573277
23.767 -7.6160002 -0.59399998 -0.21713619 0.20795421 -0.32532528 0.44297811
23.937 -7.6290002 -0.60000002 -0.29266319 0.17688118 -0.3755573 0.50791925
23.733999 -7.652 -0.75700003 -0.13936883 0.18680948 -0.20280296 0.30895063
23.825001 -7.598 -0.75999999 -0.13504186 0.19146694 -0.20883404 0.31385911
24.094 -7.6009998 -0.76999998 0.0050001228 0.22635786 -0.23014367 0.32284516
24.327999 -7.632 -0.77899998 0.033242594 0.26744941 -0.34394687 0.43695962
