# .PCD v0.7 - Point Cloud Data file format
VERSION 0.7
FIELDS x y z normal_x normal_y normal_z curvature
SIZE 4 4 4 4 4 4 4
TYPE F F F F F F F
COUNT 1 1 1 1 1 1 1
WIDTH 676
HEIGHT 1
VIEWPOINT 0 0 0 1 0 0 0
POINTS 676
DATA ascii
13.38 2.0350001 -0.796 -0.0053498931 0.54161221 -0.59011102 0.80100149
13.323 2.069 -0.792 0.016012378 0.5427984 -0.57743204 0.79266274
13.058 2.0699999 -0.773 -0.023927467 0.55369776 -0.53453028 0.76998466
12.416 2.007 -0.72500002 0.12693867 0.50065064 -0.71420068 0.88138926
11.847 1.952 -0.68300003 -0.060010001 0.54287201 -0.62459069 0.82971364
11.291 1.95 -0.64300001 0.090216212 0.56428301 -0.5772348 0.81225258
11.457 2.016 -0.65600002 0.075693414 0.54191381 -0.68115771 0.87371385
10.935 1.959 -0.61699998 0.04246746 0.55777782 -0.60780668 0.8260439
10.713 1.9529999 -0.60100001 0.29130727 0.54101551 -0.55108756 0.82538188
10.58 2.0150001 -0.59200001 0.34502453 0.45974463 -0.69155949 0.89925611
10.519 2.0369999 -0.588 0.35815197 0.42351684 -0.73545158 0.92115599
10.461 2.0599999 -0.58399999 0.32955417 0.39803654 -0.78648305 0.94106042
10.398 2.0810001 -0.57999998 0.33796662 0.36926225 -0.8058902 0.9487018
10.391 2.1140001 -0.57999998 0.33558929 0.35977301 -0.82045269 0.95666057
10.391 2.148 -0.57999998 0.34108579 0.3177669 -0.84832263 0.96797037
10.375 2.1619999 -0.579 0.3361989 0.31118849 -0.85579216 0.97069472
10.369 2.194 -0.579 0.35302091 0.27073139 -0.86915517 0.97639638
10.358 2.2260001 -0.579 0.34890199 0.2446555 -0.88528574 0.98250687
10.539 3.698 -0.62099999 -0.10552415 0.24111009 -0.049461901 0.26779824
10.551 3.74 -0.62300003 -0.10949117 0.25433576 -0.062977731 0.28397393
10.626 3.8039999 -0.63 -0.10803897 0.269189 -0.070216328 0.2984384
10.853 3.944 -0.64899999 -0.24428424 0.27574679 -0.18453258 0.41202348
10.841 3.9779999 -0.64899999 -0.2348665 0.26535457 -0.1682888 0.39229637
10.875 4.0300002 -0.653 0.54568666 -0.088721894 -0.45625854 0.71681052
10.84 4.0549998 -0.65100002 0.54463536 -0.085919179 -0.40264577 0.68273962
14.74 2.013 -0.99199998 -0.10770721 0.54057747 -0.55719084 0.7837643
14.755 2.062 -0.99400002 -0.10851753 0.54062283 -0.55708164 0.78382969
14.753 2.109 -0.99400002 -0.1172132 0.5188297 -0.55744964 0.77050197
14.13 2.066 -0.94499999 -0.0603332 0.51077342 -0.63758379 0.81917197
13.804 2.0639999 -0.91900003 -0.077637628 0.51588923 -0.63044149 0.81830662
13.302 2.0109999 -0.87800002 0.061826412 0.5386855 -0.56641555 0.78411168
13.28 2.05 -0.87699997 0.061727192 0.53882056 -0.56639743 0.78418356
13.012 2.0510001 -0.85600001 -0.0043378808 0.55456477 -0.5154857 0.75715679
12.513 2.0139999 -0.81599998 -0.058572136 0.55937058 -0.48518741 0.7427873
11.827 1.943 -0.75999999 0.0098458268 0.53506857 -0.68015969 0.86545509
11.57 1.939 -0.74000001 0.087897085 0.56075579 -0.62396598 0.84350842
11.404 1.948 -0.727 0.098724708 0.56666946 -0.5698846 0.80970937
11.234 1.938 -0.713 0.11229271 0.57177633 -0.5703128 0.81534934
11.067 1.9450001 -0.69999999 0.11203519 0.57031035 -0.57927781 0.82059038
10.939 1.9579999 -0.69 0.10538776 0.57649899 -0.48414654 0.76016808
10.457 2.0090001 -0.653 0.31099755 0.45965356 -0.71440578 0.90464163
10.413 2.0179999 -0.64999998 0.2978895 0.46075705 -0.72386694 0.90830529
10.34 2.0369999 -0.64399999 0.31090024 0.44353801 -0.75072306 0.92572677
10.29 2.0610001 -0.64099997 0.31478015 0.40128538 -0.79835737 0.94735998
10.245 2.086 -0.63800001 0.3207497 0.37527835 -0.82114512 0.95811975
10.205 2.1110001 -0.63499999 0.32286856 0.37101817 -0.82515395 0.96061319
10.192 2.142 -0.634 0.3367385 0.32501617 -0.85161924 0.97174257
10.195 2.1760001 -0.63499999 0.34094331 0.29603183 -0.86326772 0.97422194
10.194 2.1919999 -0.63499999 0.34810281 0.28913715 -0.86269832 0.97417879
10.183 2.224 -0.63499999 0.3591029 0.25380757 -0.87572777 0.97993487
10.186 2.2579999 -0.63599998 0.37966311 0.24315827 -0.87052298 0.98034698
10.248 3.4330001 -0.66600001 -0.14154476 0.19907722 -0.058904111 0.25126949
10.273 3.4779999 -0.66900003 -0.12573341 0.22782354 -0.056318611 0.26624095
10.277 3.5150001 -0.67000002 -0.1271126 0.22646701 -0.056708604 0.26582095
10.298 3.5580001 -0.67299998 -0.12469702 0.23914562 -0.05929181 0.27614397
10.338 3.5899999 -0.67699999 -0.11246787 0.25109792 -0.055735081 0.28072333
10.34 3.6270001 -0.67799997 -0.11195192 0.25303477 -0.056128681 0.28233004
10.366 3.6730001 -0.68099999 -0.11926626 0.26046982 -0.064350247 0.29361525
10.247 3.6670001 -0.67199999 -0.12992668 0.25761849 -0.067431062 0.2963025
10.369 3.747 -0.68300003 -0.12862709 0.271786 -0.081961572 0.31165728
10.794 3.977 -0.722 -0.23922317 0.32725117 -0.22057137 0.46148974
10.816 4.0040002 -0.72399998 -0.28445077 0.2925536 -0.24616349 0.47654623
13.919 1.888 -1.006 -0.077290773 0.52637047 -0.63866955 0.83122712
13.741 1.908 -0.99199998 0.0055339038 0.51812154 -0.65747321 0.83710909
13.561 1.926 -0.97600001 0.049022578 0.53288949 -0.62867481 0.8255946
13.492 1.959 -0.97100002 0.046909332 0.53551543 -0.59380341 0.80098671
13.576 2.0150001 -0.97899997 0.045818113 0.52011979 -0.61015975 0.80306834
13.319 2.0409999 -0.95700002 0.081524685 0.53541058 -0.56275231 0.78102553
13.407 2.098 -0.96600002 0.050702661 0.51902473 -0.58633709 0.78469652
12.344 1.969 -0.87400001 -0.081914514 0.55062616 -0.56831485 0.79553813
11.818 1.9220001 -0.82800001 0.015775979 0.56519645 -0.5940367 0.82010704
11.586 1.921 -0.80900002 0.11037465 0.58056301 -0.54981887 0.80717832
11.482 1.941 -0.80000001 0.11657166 0.57709873 -0.55385792 0.80832577
11.299 1.946 -0.78500003 0.10570624 0.56800443 -0.56041545 0.80490267
11.133 1.9349999 -0.76999998 0.11235546 0.57978064 -0.53567404 0.79731798
10.97 1.942 -0.75700003 0.10524656 0.57776326 -0.50433302 0.77410531
10.762 1.9400001 -0.73900002 0.16313179 0.57241344 -0.4745042 0.76119864
10.711 1.965 -0.73500001 0.20788054 0.56751543 -0.5237928 0.79977936
10.54 2.0020001 -0.72100002 0.2651605 0.51002753 -0.65414226 0.87082738
10.444 2.017 -0.713 0.28017896 0.47820804 -0.70808643 0.89920497
10.366 2.0190001 -0.70700002 0.28066427 0.46715075 -0.72693235 0.90853339
10.323 2.0439999 -0.704 0.27764148 0.45027694 -0.7547878 0.92170423
10.252 2.063 -0.69800001 0.31068298 0.42302361 -0.77693653 0.93760508
10.232 2.0929999 -0.69700003 0.32662216 0.3992148 -0.7942822 0.94706851
10.164 2.112 -0.69099998 0.33698767 0.37862927 -0.800933 0.94784731
10.132 2.1389999 -0.68900001 0.36105555 0.35142112 -0.81087732 0.95466226
10.137 2.1730001 -0.69 0.37240505 0.33773434 -0.81308973 0.95596284
10.134 2.1889999 -0.69 0.36741823 0.3190124 -0.82511842 0.95790684
10.135 2.2219999 -0.69099998 0.38583916 0.27502477 -0.84314859 0.96716595
10.12 2.253 -0.69 0.39289531 0.24950451 -0.85244691 0.9712286
10.126 2.2869999 -0.69099998 0.40067697 0.23275518 -0.85389501 0.97152132
10.111 2.3169999 -0.69099998 0.40709704 0.21130779 -0.85960901 0.97432369
10.12 2.3529999 -0.69199997 0.41111308 0.17639144 -0.86687648 0.9755013
10.18 3.4230001 -0.722 -0.15382457 0.20486563 -0.06616962 0.26459467
10.194 3.4630001 -0.72399998 -0.15844418 0.22075155 -0.073129326 0.281396
10.202 3.5020001 -0.72600001 -0.15885454 0.23591492 -0.076488048 0.29451832
10.232 3.53 -0.72899997 -0.14989132 0.25016546 -0.07590881 0.3013508
10.23 3.566 -0.73000002 -0.15025029 0.2594904 -0.079440713 0.31019551
10.259 3.612 -0.73400003 -0.14884745 0.26390252 -0.082296431 0.31396306
10.268 3.651 -0.736 -0.14983135 0.27741489 -0.088087142 0.32736495
10.507 3.7739999 -0.759 -0.13255949 0.34894633 -0.12184829 0.39266089
14.642 1.9450001 -1.1569999 -0.1129369 0.5372225 -0.59017169 0.80601823
14.288 1.9450001 -1.124 -0.077823222 0.53004968 -0.62623286 0.82412177
14.021 1.931 -1.1 -0.082072787 0.52384466 -0.63024622 0.8236258
13.419 1.892 -1.045 0.12518732 0.52082849 -0.575912 0.78651685
13.389 1.931 -1.0420001 0.13864876 0.51872814 -0.56320024 0.77813679
13.409 1.977 -1.045 0.13848163 0.51914859 -0.56315058 0.77835143
13.406 2.02 -1.045 0.13232642 0.51075774 -0.56361794 0.77204204
13.427 2.066 -1.048 0.071420081 0.51730955 -0.57276183 0.77509105
13.403 2.105 -1.046 0.19465673 0.47122681 -0.58271259 0.77427381
11.883 1.8890001 -0.90499997 0.050819937 0.57893825 -0.51478529 0.77637368
11.659 1.891 -0.88499999 0.10329917 0.57939249 -0.54340136 0.80103147
11.495 1.902 -0.87 0.11198876 0.56934512 -0.53706825 0.79065645
11.334 1.9119999 -0.85600001 0.10297944 0.56980056 -0.54785311 0.79713261
11.175 1.9220001 -0.84100002 0.11994799 0.57280242 -0.53841895 0.79522645
11.033 1.934 -0.829 0.11683955 0.57496083 -0.51829076 0.7828517
10.89 1.944 -0.81599998 0.11788329 0.56949532 -0.50959206 0.77324349
10.738 1.9349999 -0.80199999 0.15588684 0.57306612 -0.48578283 0.76726168
10.634 1.951 -0.79299998 0.18955265 0.55569899 -0.54267573 0.79951769
10.467 1.989 -0.778 0.25371012 0.50447685 -0.66122866 0.86953384
10.386 2.007 -0.77100003 0.26149639 0.48591116 -0.70081043 0.89197826
10.323 2.029 -0.76599997 0.24702394 0.48246157 -0.7174015 0.89914119
10.275 2.053 -0.76200002 0.28276587 0.4643265 -0.72983617 0.91006398
10.235 2.062 -0.759 0.32100439 0.43944326 -0.74203885 0.92020422
10.254 2.099 -0.76099998 0.3161307 0.43254972 -0.75083196 0.92238086
10.107 2.1029999 -0.74800003 0.36392927 0.40230232 -0.75438535 0.92918724
10.051 2.1240001 -0.74299997 0.36590382 0.38868088 -0.76687157 0.93437171
10.023 2.151 -0.741 0.36775964 0.37105989 -0.78479528 0.94278115
10.03 2.1860001 -0.74299997 0.37922162 0.34603846 -0.79788631 0.94877511
10.017 2.2160001 -0.74199998 0.38203514 0.31858996 -0.81763089 0.95706356
10.012 2.2309999 -0.74199998 0.37905815 0.30246213 -0.83069402 0.96188408
10.005 2.263 -0.74199998 0.39906293 0.25809377 -0.84013093 0.96523756
10.005 2.296 -0.74299997 0.40634075 0.2194764 -0.8472296 0.96492523
9.9960003 2.3269999 -0.74199998 0.40997589 0.20415379 -0.85232562 0.9675836
10.008 2.3629999 -0.74400002 0.40151545 0.16558874 -0.8706913 0.97300446
9.9949999 2.3929999 -0.74400002 0.40781111 0.16328791 -0.86811674 0.97293347
9.9890003 2.425 -0.74400002 -0.23006347 0.033932265 -0.10979933 0.25717014
9.9799995 2.4389999 -0.74299997 -0.22946915 0.033370133 -0.10934502 0.25637081
9.9989996 2.477 -0.74599999 -0.22435658 0.051597226 -0.10588384 0.253396
10.007 2.5120001 -0.74699998 -0.22908734 0.046892166 -0.11047459 0.25862041
10.007 2.5450001 -0.74800003 -0.21904919 0.091033317 -0.10044232 0.25760099
9.9949999 2.576 -0.74800003 -0.23367688 0.086602665 -0.11337119 0.27378446
10.002 2.6110001 -0.74900001 -0.22123733 0.10955531 -0.1029914 0.2674987
9.9899998 2.642 -0.74900001 -0.24270765 0.12059093 -0.12113237 0.29685387
9.9910002 2.6589999 -0.74900001 -0.24366912 0.12146232 -0.12165496 0.29820743
9.9960003 2.694 -0.75099999 -0.23320866 0.1362114 -0.11556044 0.29375848
9.9960003 2.727 -0.75099999 -0.24185027 0.13237809 -0.12533346 0.30285969
9.9910002 2.76 -0.75199997 -0.23465879 0.12841336 -0.11790487 0.2923291
10.003 2.7969999 -0.75400001 -0.23405199 0.13086814 -0.11753666 0.29278263
9.9980001 2.829 -0.75400001 -0.24471022 0.1296635 -0.12797126 0.30507764
9.9840002 2.859 -0.75400001 -0.2365133 0.14026538 -0.12090182 0.30038336
9.993 2.8789999 -0.755 -0.2356004 0.12866682 -0.11883539 0.29357204
9.9849997 2.911 -0.755 -0.24004169 0.13603339 -0.12390071 0.30245078
9.9969997 2.948 -0.75700003 -0.24262364 0.13458349 -0.12633336 0.3048591
10.015 2.987 -0.75999999 -0.2478864 0.11923943 -0.13044626 0.30443707
10.017 3.0220001 -0.76099998 -0.2466009 0.13174498 -0.13054392 0.30856192
10.013 3.0550001 -0.76099998 -0.25343424 0.13176215 -0.13770536 0.31710082
10.031 3.0780001 -0.76300001 -0.25063646 0.11470702 -0.12667432 0.30335248
10.027 3.1110001 -0.764 -0.24940002 0.12083416 -0.12458262 0.30384552
10.015 3.142 -0.764 -0.24732883 0.12534687 -0.1245296 0.30395889
10.022 3.1789999 -0.76499999 -0.24540724 0.12907757 -0.12303495 0.30335349
10.024 3.214 -0.76700002 -0.2384699 0.14658482 -0.12086874 0.30490041
10.027 3.25 -0.76800001 -0.22756895 0.15635154 -0.11217284 0.29802042
10.043 3.29 -0.76999998 -0.22983453 0.17400694 -0.11764371 0.31135568
10.046 3.326 -0.77200001 -0.21650279 0.18528613 -0.10823727 0.30482736
10.058 3.3469999 -0.773 -0.2122044 0.19910555 -0.10812744 0.31042758
10.072 3.3870001 -0.77600002 -0.2169615 0.21978715 -0.11888072 0.33092493
10.076 3.424 -0.77700001 -0.20311365 0.24043354 -0.11224341 0.33415869
10.082 3.461 -0.77899998 -0.20129862 0.2718251 -0.12218991 0.35963926
10.094 3.5009999 -0.78100002 -0.19877636 0.31048521 -0.13719395 0.39336407
10.098 3.5380001 -0.78200001 -0.21344236 0.31308901 -0.15698206 0.4101533
10.122 3.582 -0.78600001 -0.19340587 0.35213259 -0.16654056 0.43490109
10.16 3.6129999 -0.79000002 -0.17895341 0.37193158 -0.16994566 0.4463619
10.057 3.612 -0.78100002 -0.21856874 0.35327393 -0.19340482 0.45823595
10.182 3.6930001 -0.79500002 -0.16796008 0.41222289 -0.2017853 0.48872855
14.603 1.944 -1.247 -0.12033357 0.52909613 -0.62148035 0.82502162
14.261 1.921 -1.2130001 -0.057111304 0.53109795 -0.62402546 0.82142222
14.211 1.96 -1.209 -0.088451907 0.53710216 -0.58362103 0.79807013
13.389 1.888 -1.128 0.14204307 0.51664186 -0.56710225 0.78019226
13.326 1.921 -1.122 0.23937082 0.47155148 -0.55767417 0.76854384
13.304 1.961 -1.1210001 0.39343205 0.31515968 -0.58282542 0.77058411
13.318 2.006 -1.123 0.38717592 0.30679587 -0.58328557 0.76436311
13.328 2.029 -1.124 0.38717592 0.30679587 -0.58328557 0.76436311
13.336 2.073 -1.125 0.36585552 0.32630393 -0.57398474 0.75483972
11.92 1.888 -0.98500001 0.064791195 0.58221322 -0.50225699 0.77164257
11.708 1.892 -0.96499997 0.096310675 0.58515245 -0.50497967 0.77889895
11.511 1.897 -0.94599998 0.10954572 0.5728544 -0.52743721 0.78635389
11.323 1.902 -0.92699999 0.10659686 0.56739885 -0.54003048 0.79052973
11.15 1.909 -0.91100001 0.12380163 0.57164317 -0.52261895 0.78436816
11.012 1.902 -0.89700001 0.11975209 0.57468182 -0.52097905 0.78486878
10.871 1.913 -0.884 0.11712217 0.57000625 -0.52687651 0.78499907
10.741 1.925 -0.87199998 0.13005677 0.56491989 -0.52126354 0.77959281
10.604 1.934 -0.85799998 0.17494851 0.55090863 -0.56690466 0.80962223
10.545 1.9579999 -0.85299999 0.19537209 0.54490566 -0.5800209 0.81946123
10.476 1.979 -0.847 0.21033886 0.53297395 -0.61636376 0.84155095
10.341 1.9859999 -0.83399999 0.24235071 0.50567323 -0.67241013 0.87554252
10.289 1.993 -0.829 0.26468897 0.50325125 -0.6760748 0.88340205
10.185 2.006 -0.81900001 0.30601731 0.47313184 -0.69110477 0.89169848
10.144 2.0309999 -0.81599998 0.32796985 0.45494372 -0.70269501 0.8990652
10.03 2.0409999 -0.80500001 0.35766611 0.44525731 -0.68151426 0.88917983
10.02 2.0710001 -0.80500001 0.36598417 0.4219743 -0.71515536 0.90744358
9.9840002 2.0969999 -0.80199999 0.38264689 0.4129982 -0.71186072 0.90759677
9.9519997 2.122 -0.79900002 0.40558141 0.39950013 -0.70689553 0.90763313
9.8769999 2.122 -0.792 0.4039194 0.38450503 -0.7238493 0.91375756
9.8559999 2.1500001 -0.79100001 0.43325162 0.34912589 -0.72860241 0.91676462
9.9580002 2.2060001 -0.80199999 0.43805599 0.34823006 -0.73297083 0.92217326
9.9219999 2.23 -0.79900002 0.46067187 0.3020466 -0.74772394 0.92873126
9.9399996 2.267 -0.801 0.46947998 0.28241175 -0.75175524 0.93021709
9.941 2.3 -0.80199999 0.47112834 0.2480818 -0.76469839 0.93181014
9.9180002 2.3280001 -0.80000001 0.4859837 0.2274732 -0.75646675 0.92745143
9.915 2.3599999 -0.801 0.49712491 0.18122335 -0.76275915 0.92831922
9.915 2.3770001 -0.801 0.48865098 0.18736228 -0.77139926 0.93217015
9.9209995 2.411 -0.80299997 0.49248755 0.13953295 -0.7808708 0.93368769
9.927 2.4460001 -0.80400002 0.48848784 0.14446411 -0.7881043 0.93840218
9.915 2.4760001 -0.80299997 0.49599156 0.10429238 -0.78440452 0.9339031
9.8999996 2.5050001 -0.80299997 0.4982664 0.088884197 -0.78230029 0.93175292
9.9110003 2.5409999 -0.80500001 0.49452853 0.071718574 -0.78737676 0.93255788
9.9029999 2.556 -0.80400002 0.50244057 0.062650666 -0.77636409 0.9268834
9.9069996 2.5899999 -0.80500001 0.50406677 0.069550075 -0.77367866 0.92601252
9.9020004 2.622 -0.80599999 0.5047254 0.050638884 -0.77455151 0.9258737
9.9130001 2.658 -0.80800003 0.51291347 0.047657438 -0.76820558 0.92492771
9.9029999 2.6889999 -0.80800003 0.51048452 0.050592817 -0.77200258 0.92689919
9.908 2.724 -0.80900002 0.5281049 0.057278644 -0.74653983 0.91624087
9.9049997 2.756 -0.81 0.521092 0.056831509 -0.75726575 0.92098761
9.908 2.7739999 -0.81 0.52737331 0.061322663 -0.7525515 0.92098689
9.9049997 2.8069999 -0.81099999 0.53592545 0.065934643 -0.73977202 0.91587448
9.9180002 2.8440001 -0.81300002 0.52628213 0.057058223 -0.7535935 0.9209407
9.9049997 2.8740001 -0.81300002 0.5360868 0.050260466 -0.7371065 0.91282046
9.9219999 2.9130001 -0.815 0.52603626 0.051092912 -0.75063586 0.91802984
9.9189997 2.9460001 -0.81599998 0.5354616 0.054568753 -0.73761272 0.91310978
9.9130001 2.9779999 -0.81599998 0.53063512 0.04583808 -0.74375266 0.91479111
9.9329996 3.0009999 -0.81900001 0.52765059 0.05127354 -0.74946922 0.91801322
9.9329996 3.0350001 -0.81999999 0.52530873 0.05919753 -0.75419152 0.92100948
9.9309998 3.069 -0.82099998 0.52791083 0.066699833 -0.75111163 0.92049301
9.9289999 3.1029999 -0.82099998 0.52609062 0.065569237 -0.75376481 0.92153788
9.9209995 3.1340001 -0.82200003 0.52164316 0.067974851 -0.76061642 0.92480779
9.948 3.177 -0.82499999 0.51634735 0.046536721 -0.75465751 0.91558081
9.9390001 3.2090001 -0.82599998 0.50635457 0.045028869 -0.77091682 0.92343664
9.9630003 3.234 -0.829 0.50939775 0.041332245 -0.76599896 0.9208414
9.9390001 3.2609999 -0.82700002 0.51129794 0.025918499 -0.76010346 0.91643584
9.967 3.3050001 -0.83099997 0.4983297 0.010608867 -0.77447426 0.92100787
9.9540005 3.335 -0.83099997 -0.2872394 0.2019643 -0.19003114 0.39925918
9.9700003 3.375 -0.83399999 -0.28477162 0.22591971 -0.19658265 0.41325456
9.967 3.4089999 -0.83399999 -0.27520055 0.24597867 -0.19348913 0.41674799
9.9940004 3.454 -0.838 -0.25788879 0.27885646 -0.18855911 0.42405435
9.9870005 3.4690001 -0.838 -0.25327381 0.30169073 -0.19729352 0.44055608
10.013 3.513 -0.84200001 -0.23724946 0.33847392 -0.20476246 0.46128035
10.019 3.5510001 -0.84399998 -0.22398731 0.37437746 -0.21637729 0.48697838
10.04 3.5940001 -0.847 -0.2335079 0.37132868 -0.22748721 0.49412689
10.017 3.6210001 -0.84600002 -0.22250327 0.38810667 -0.23184228 0.50387037
10.292 3.7579999 -0.87599999 -0.10541485 0.49728128 -0.28334752 0.58196801
14.133 1.913 -1.288 -0.10397884 0.53999168 -0.56612486 0.78924012
13.879 1.901 -1.262 -0.041225649 0.54662526 -0.55716783 0.78162313
13.714 1.923 -1.245 -0.010751698 0.54373461 -0.5447396 0.76974291
13.3 1.908 -1.202 0.28966185 0.43759033 -0.55231386 0.76186603
13.304 1.951 -1.2029999 0.28922188 0.43775141 -0.55227852 0.76176584
13.288 1.992 -1.202 0.42542458 0.26111814 -0.57110661 0.75850612
13.321 2.039 -1.206 0.28296575 0.4293876 -0.55273867 0.75495917
13.299 2.079 -1.205 0.43228146 0.19840458 -0.58062214 0.75056893
13.281 2.0969999 -1.2029999 0.43224654 0.19844796 -0.58061689 0.75055623
11.721 1.892 -1.039 0.091067828 0.58352149 -0.49095178 0.76800019
11.499 1.8940001 -1.016 0.11147568 0.57292432 -0.5136832 0.77752143
11.312 1.9 -0.99699998 0.10899434 0.56864774 -0.51673973 0.77605408
11.138 1.9069999 -0.97899997 0.1219729 0.57260817 -0.50912613 0.77586526
10.967 1.913 -0.96200001 0.12404172 0.57369363 -0.51122069 0.77836835
10.83 1.925 -0.94800001 0.12626576 0.57091498 -0.51738083 0.78074956
10.67 1.914 -0.93099999 0.12582609 0.55993843 -0.52865016 0.78027827
10.544 1.926 -0.91900003 0.17585251 0.54991025 -0.57190526 0.81265062
10.413 1.936 -0.90499997 0.20006926 0.53312171 -0.61427617 0.83760476
10.362 1.961 -0.90100002 0.22047114 0.52581161 -0.62979299 0.84954375
10.268 1.976 -0.89099997 0.25873768 0.51256722 -0.64375103 0.86260402
10.222 2.0009999 -0.88700002 0.28161079 0.49824309 -0.65538633 0.87010461
10.216 2.033 -0.88700002 0.30337328 0.48619729 -0.66007423 0.87414026
10.081 2.04 -0.87300003 0.36726844 0.44521478 -0.66832787 0.88304269
10.043 2.0480001 -0.87 0.36069557 0.44915786 -0.66951567 0.88323003
9.9639997 2.0650001 -0.86199999 0.39101231 0.43967044 -0.65459192 0.88016546
9.9219999 2.089 -0.85799998 0.40854618 0.41434234 -0.67531705 0.89142734
9.8129997 2.099 -0.847 0.44608349 0.38571969 -0.64025319 0.8704564
9.7889996 2.1259999 -0.84500003 0.45854917 0.36194929 -0.6538105 0.87677979
9.7620001 2.152 -0.84299999 0.48442334 0.34062946 -0.62947631 0.86425394
9.8459997 2.187 -0.85299999 0.47014412 0.34171999 -0.68444359 0.89792597
9.8570004 2.221 -0.85399997 0.48808157 0.29458463 -0.70671481 0.90799206
9.7259998 2.224 -0.84100002 0.51152015 0.31776282 -0.61824697 0.86305004
9.8269997 2.28 -0.85299999 0.50860333 0.26596498 -0.69196934 0.89901966
9.7209997 2.2880001 -0.84200001 0.54183006 0.24378911 -0.63398123 0.8688758
9.7200003 2.3199999 -0.84299999 0.55196494 0.20090127 -0.65385103 0.87894696
9.7089996 2.349 -0.84200001 0.55898398 0.17743134 -0.65043008 0.87578779
9.7069998 2.365 -0.84299999 0.56164283 0.15890409 -0.65318686 0.875983
9.7110004 2.398 -0.84399998 0.56477535 0.14225884 -0.65181905 0.87411487
9.7150002 2.4319999 -0.84500003 0.56810701 0.12050828 -0.64956647 0.87132341
9.7130003 2.464 -0.84600002 0.57549733 0.093787432 -0.62937349 0.85796517
9.7130003 2.4960001 -0.847 0.57336283 0.066772342 -0.63952398 0.86150706
9.7110004 2.5280001 -0.847 0.57037681 0.06779632 -0.63559467 0.85668349
9.7010002 2.5580001 -0.847 0.57252383 0.042203575 -0.62485981 0.84853667
9.7049999 2.575 -0.84799999 0.56900132 0.018449765 -0.62911683 0.84846383
9.698 2.6059999 -0.84799999 0.57049137 -0.0084401146 -0.60315835 0.83025998
9.6940002 2.638 -0.84799999 0.57519019 0.029395718 -0.61087942 0.83957225
9.6859999 2.668 -0.84799999 0.57251382 0.014315315 -0.61126542 0.83762908
9.6809998 2.7 -0.84899998 0.57653862 0.015639588 -0.5957247 0.82917386
9.6750002 2.7309999 -0.84899998 0.58086079 0.018800572 -0.57669395 0.81873602
9.8079996 2.8010001 -0.86400002 0.5558207 0.046679515 -0.68072909 0.88006121
9.8739996 2.8369999 -0.87199998 0.55936557 0.062228546 -0.69356656 0.89319474
9.8760004 2.8710001 -0.87300003 0.55731857 0.062837631 -0.69947332 0.89655757
9.8769999 2.905 -0.87400001 0.55799669 0.049522914 -0.69552821 0.89306903
9.8769999 2.9389999 -0.875 0.55414259 0.058513604 -0.70503259 0.89864832
9.8450003 2.9630001 -0.87300003 0.55989206 0.043069996 -0.68392217 0.88492018
9.8260002 2.9909999 -0.87199998 0.56786734 0.071935922 -0.6713832 0.88227177
9.8280001 3.0250001 -0.87300003 0.56239522 0.05323863 -0.68036449 0.88431811
9.8290005 3.0420001 -0.87400001 0.56167352 0.045043338 -0.68018591 0.88326609
9.8199997 3.073 -0.87400001 0.56102753 0.072320871 -0.68631023 0.88938403
9.8120003 3.105 -0.87400001 0.5638907 0.057406943 -0.67774105 0.88351637
9.8059998 3.1370001 -0.87400001 0.56215316 0.072526693 -0.68383825 0.88820666
9.8219995 3.1760001 -0.87699997 0.56450963 0.057879418 -0.67639256 0.88290882
9.8369999 3.2149999 -0.88 0.56230378 0.063421689 -0.68235272 0.88646102
9.8479996 3.2520001 -0.88200003 0.56421417 0.036495037 -0.68235028 0.88615543
9.8780003 3.28 -0.88599998 0.53859532 0.019509226 -0.71317905 0.89391828
9.8850002 3.316 -0.88800001 0.53561813 0.018035971 -0.71824968 0.89615548
9.8800001 3.349 -0.889 0.533445 -0.027870111 -0.70315379 0.88304335
9.875 3.382 -0.889 0.53342175 -0.031108052 -0.70225698 0.88242358
9.9320002 3.4360001 -0.89700001 -0.29548448 0.26870632 -0.23829256 0.46507797
9.9460001 3.4760001 -0.89899999 -0.28657389 0.30730921 -0.25074187 0.48932096
9.9569998 3.5150001 -0.90200001 -0.2592968 0.34042838 -0.23600493 0.4886969
9.9709997 3.5369999 -0.90399998 -0.25507569 0.35527208 -0.23985648 0.4988116
9.9799995 3.576 -0.90600002 -0.25225472 0.38032672 -0.26393276 0.52720147
9.8170004 3.553 -0.88999999 0.52693594 -0.13180077 -0.63300526 0.83410347
10.158 3.711 -0.92900002 -0.1705192 0.48026195 -0.30801821 0.59548599
14.212 1.909 -1.391 -0.040102527 0.53382361 -0.60802424 0.81010449
13.962 1.919 -1.363 -0.052407559 0.54710692 -0.52382463 0.75925279
13.658 1.899 -1.33 0.022558138 0.54310101 -0.50536948 0.74220341
13.337 1.896 -1.294 0.18384735 0.50467384 -0.53098345 0.75527406
13.329 1.938 -1.294 0.18349743 0.50410712 -0.53102493 0.7548396
13.333 1.9809999 -1.295 0.17727822 0.49644756 -0.53141606 0.74852574
13.342 2.026 -1.2970001 0.15560713 0.50478101 -0.54146755 0.75644201
13.341 2.069 -1.298 0.20210612 0.47302684 -0.54463536 0.74915212
13.319 2.108 -1.296 0.37625423 0.3179495 -0.54496258 0.73460424
11.835 1.908 -1.13 0.083963059 0.58314967 -0.46682793 0.75169253
11.689 1.903 -1.114 0.09972275 0.58573186 -0.47828078 0.76274437
11.475 1.905 -1.09 0.11077212 0.56961733 -0.4891879 0.75897241
11.309 1.913 -1.072 0.11384834 0.56953859 -0.49009499 0.75995308
11.107 1.915 -1.05 0.12544572 0.57299477 -0.49647352 0.76846963
10.977 1.928 -1.036 0.11874811 0.57169819 -0.4962655 0.76630241
10.697 1.913 -1.005 0.11275345 0.56076133 -0.52121097 0.77383941
10.55 1.903 -0.98900002 0.14832652 0.5546388 -0.55540615 0.79881221
10.487 1.925 -0.98299998 0.15776886 0.55165386 -0.56593454 0.80591244
10.399 1.943 -0.97299999 0.19968694 0.53852588 -0.59269214 0.8253296
10.305 1.959 -0.96399999 0.23565406 0.53151006 -0.60636973 0.84007144
10.23 1.978 -0.95599997 0.2680054 0.51488119 -0.61591661 0.84633493
10.164 1.998 -0.949 0.32347333 0.490426 -0.62840402 0.86025828
10.111 2.02 -0.94400001 0.33946949 0.47893405 -0.62713313 0.85901886
10.298 2.075 -0.96499997 0.27319324 0.5135119 -0.62071633 0.85065728
10.074 2.062 -0.94099998 0.37040874 0.44986966 -0.65332747 0.87545538
10.026 2.085 -0.93599999 0.38226196 0.44323504 -0.65360969 0.87737513
9.9519997 2.168 -0.93000001 0.44035119 0.38770539 -0.67757475 0.89628798
9.8540001 2.178 -0.91900003 0.48925558 0.33411801 -0.64822376 0.87817985
9.7860003 2.1789999 -0.912 0.49621734 0.33421943 -0.62411356 0.86455309
9.9169998 2.2420001 -0.92799997 0.49680001 0.30589527 -0.68548363 0.90015
9.7860003 2.244 -0.91399997 0.52718079 0.28468883 -0.62492728 0.8657375
9.783 2.276 -0.91399997 0.54563236 0.25508606 -0.60734069 0.85536325
9.776 2.306 -0.91399997 0.55516911 0.23108605 -0.60920477 0.85600466
9.7639999 2.336 -0.91399997 0.55933362 0.21039635 -0.61713761 0.85905737
9.757 2.3670001 -0.91399997 0.56311733 0.20601407 -0.6078192 0.85380739
9.7690001 2.3859999 -0.91600001 0.57151937 0.17057207 -0.60724485 0.85116124
9.7609997 2.4170001 -0.91600001 0.5781979 0.14057207 -0.60914904 0.85154909
9.7840004 2.4549999 -0.91900003 0.5672304 0.10746355 -0.63685822 0.85958546
9.7749996 2.4849999 -0.91900003 0.56741494 0.10051383 -0.63471973 0.85728168
9.7670002 2.516 -0.91900003 0.56234825 0.073354565 -0.65693808 0.86786181
9.7650003 2.5480001 -0.91900003 0.56596255 0.066217452 -0.6463958 0.8616994
9.7700005 2.582 -0.921 0.56443179 0.045341469 -0.65071851 0.86259705
9.7790003 2.6010001 -0.92299998 0.55996484 0.04309928 -0.66252536 0.86853784
9.8000002 2.6400001 -0.926 0.55491894 0.049569964 -0.67660129 0.87645966
9.7939997 2.671 -0.926 0.55882871 0.018078372 -0.65869832 0.86400223
9.802 2.707 -0.92799997 0.55722117 0.030271038 -0.66673464 0.86945206
9.7919998 2.737 -0.92799997 0.55989885 0.024326801 -0.65737998 0.86384428
9.776 2.766 -0.92699999 0.56174982 0.037990477 -0.6561324 0.86458999
10.008 2.8659999 -0.95499998 0.5615294 0.076362908 -0.69421446 0.89614743
9.8459997 2.836 -0.93699998 0.56519294 0.05362232 -0.66742408 0.87622678
9.8719997 2.8770001 -0.94099998 0.56471986 0.056626353 -0.67620343 0.88281715
9.8570004 2.9059999 -0.94 0.56923884 0.053409573 -0.66466576 0.87673599
9.9280005 2.9960001 -0.94999999 0.55876279 0.072218239 -0.69723916 0.89642274
9.7670002 2.98 -0.93300003 0.57788384 0.044269077 -0.62390202 0.85156518
9.7869997 3.02 -0.93599999 0.5832231 0.064265676 -0.6267482 0.85854095
9.7869997 3.0369999 -0.93699998 0.58325523 0.0554935 -0.62461686 0.85639501
9.8129997 3.079 -0.94099998 0.5746932 0.069089919 -0.65272331 0.87240672
9.809 3.1110001 -0.94199997 0.57561707 0.074243128 -0.65086651 0.87205178
9.816 3.148 -0.94400001 0.57337362 0.060606435 -0.65486294 0.87251127
9.8170004 3.1819999 -0.94499999 0.57337523 0.069183454 -0.6562593 0.87419778
9.8149996 3.2149999 -0.94599998 0.57580495 0.056910645 -0.64747906 0.86834282
9.8070002 3.247 -0.94599998 0.57827574 0.042495169 -0.63218206 0.8578245
9.8109999 3.266 -0.94700003 0.57466334 0.03613767 -0.63881373 0.86001563
9.7950001 3.2939999 -0.94599998 0.577461 0.027185753 -0.63127828 0.8559863
9.783 3.325 -0.94599998 0.57757616 0.024382867 -0.63324755 0.8574329
9.8290005 3.375 -0.95300001 0.55917752 -0.02476079 -0.64019734 0.85037941
9.8540001 3.418 -0.95700002 0.54883653 -0.037723206 -0.66471058 0.86283529
9.8520002 3.4519999 -0.958 0.54885238 -0.06800618 -0.64757955 0.85160029
9.868 3.493 -0.96100003 0.54005229 -0.10047334 -0.64216673 0.84506184
9.875 3.513 -0.963 0.53632319 -0.11408464 -0.64042419 0.84309018
9.9259996 3.566 -0.97000003 -0.26675582 0.36769605 -0.29056734 0.53924805
9.9460001 3.609 -0.97399998 -0.25513673 0.38294482 -0.2886287 0.54318321
9.9779997 3.6559999 -0.97899997 -0.23394342 0.42127535 -0.31401908 0.57516122
13.951 1.901 -1.448 0.00294438 0.52350229 -0.64397705 0.82992148
13.679 1.908 -1.4170001 0.027389541 0.54217851 -0.47648081 0.72231686
13.307 1.9 -1.374 0.23363063 0.48199925 -0.49575946 0.72985202
13.308 1.921 -1.374 0.23255776 0.48069757 -0.49584702 0.72870952
13.294 1.962 -1.373 0.20339754 0.4959411 -0.47275278 0.71471906
13.302 2.006 -1.375 0.19704786 0.48762506 -0.47322294 0.70749277
13.299 2.0480001 -1.375 0.28408206 0.41997343 -0.46873045 0.69049877
13.299 2.0910001 -1.376 0.45903844 0.10587201 -0.44185248 0.64587831
11.913 1.914 -1.2130001 0.085265934 0.58682138 -0.44938475 0.74402708
11.65 1.91 -1.182 0.096833229 0.58004332 -0.458608 0.74575341
11.463 1.898 -1.16 0.10813678 0.57039899 -0.46874732 0.74617195
11.229 1.896 -1.133 0.11048715 0.56964189 -0.48324049 0.75512958
11.041 1.901 -1.112 0.11898079 0.57463896 -0.48692855 0.76253903
10.869 1.906 -1.092 0.11497667 0.57158029 -0.50253946 0.76972044
10.966 1.959 -1.104 0.11308613 0.57197005 -0.48659003 0.759413
10.964 1.994 -1.105 0.11308613 0.57197005 -0.48659003 0.759413
10.366 1.92 -1.034 0.20303835 0.542041 -0.57155943 0.81345761
10.326 1.9299999 -1.03 0.21540162 0.54340839 -0.57779402 0.82191026
10.235 1.946 -1.02 0.26454338 0.52101272 -0.5977028 0.83587444
10.173 1.9680001 -1.013 0.30364326 0.50207067 -0.60662347 0.84395868
10.094 1.9859999 -1.005 0.32928467 0.49096876 -0.60723084 0.84747159
10.228 2.0450001 -1.021 0.31189016 0.49461395 -0.59992945 0.8377552
10.017 2.036 -0.99699998 0.38229162 0.45548952 -0.61679405 0.85676861
10.034 2.072 -1 0.38215664 0.45153075 -0.63383287 0.86698782
10.039 2.0899999 -1.001 0.38797107 0.4479773 -0.63183755 0.86627012
10.032 2.1210001 -1.001 0.40529865 0.43715709 -0.63035488 0.86759472
10.054 2.2249999 -1.006 0.45177847 0.37044474 -0.66421628 0.88459957
10.042 2.289 -1.006 0.47677124 0.3145892 -0.69373804 0.89863765
9.9840002 2.2920001 -0.99900001 0.50733966 0.27631715 -0.67216688 0.88631427
9.9359999 2.3139999 -0.995 0.53386664 0.2353515 -0.6589064 0.88009179
9.8120003 2.3829999 -0.98199999 0.5650835 0.17849368 -0.59830582 0.84210998
9.8310003 2.4200001 -0.986 0.56769323 0.15100312 -0.6092754 0.84634155
9.8079996 2.448 -0.98400003 0.5703463 0.1344575 -0.60834646 0.84466511
9.8310003 2.47 -0.98699999 0.56764054 0.12164126 -0.62384236 0.8521688
9.8079996 2.497 -0.98500001 0.56886053 0.11071929 -0.62000394 0.84868485
9.8269997 2.5339999 -0.98799998 0.56541806 0.10543661 -0.63937813 0.86001098
9.8100004 2.563 -0.98699999 0.57264191 0.082021393 -0.62555909 0.85203898
9.8249998 2.5999999 -0.99000001 0.56557906 0.06480214 -0.64741898 0.86210805
9.8070002 2.628 -0.98900002 0.5728085 0.060387082 -0.62907362 0.85293013
9.8249998 2.6659999 -0.99199998 0.56667638 0.051059693 -0.64585572 0.8607316
9.8109999 2.6789999 -0.991 0.56868887 0.036427077 -0.63633746 0.85420096
9.8280001 2.7160001 -0.99400002 0.56597614 0.036222756 -0.6444993 0.85849893
9.8190002 2.747 -0.99400002 0.5656141 0.02142049 -0.64006388 0.85443544
9.8109999 2.7780001 -0.99400002 0.57036763 0.036717806 -0.63028556 0.8508392
9.8109999 2.812 -0.995 0.56864077 0.035625383 -0.63543528 0.85346323
9.816 2.846 -0.99699998 0.57534277 0.045699064 -0.62752932 0.85258478
9.8199997 2.881 -0.99800003 0.58110648 0.059177045 -0.62134278 0.85279161
9.8290005 2.9000001 -1 0.58426136 0.058872949 -0.623384 0.85640818
9.8240004 2.9319999 -1 0.58697981 0.064265959 -0.61551523 0.8529563
9.8199997 2.9649999 -1.001 0.58589363 0.069756329 -0.62043899 0.85620201
9.8280001 3.0009999 -1.003 0.5839985 0.070412628 -0.62532592 0.85851306
9.8319998 3.036 -1.005 0.58376193 0.080672584 -0.62736058 0.86073649
9.835 3.0710001 -1.006 0.5821324 0.080966093 -0.63254851 0.86345309
9.8330002 3.1040001 -1.007 0.58082545 0.068779908 -0.63509035 0.8633821
9.8470001 3.125 -1.01 0.58074474 0.068294205 -0.63525802 0.86341262
9.8470001 3.1589999 -1.011 0.58350134 0.053383436 -0.62323081 0.85541815
9.8479996 3.194 -1.012 0.5815562 0.052950177 -0.629421 0.85859311
9.8590002 3.2320001 -1.015 0.57501739 0.044889364 -0.6206854 0.84729594
9.8529997 3.2639999 -1.015 0.57154787 0.018606551 -0.62730652 0.84883839
9.8540001 3.2980001 -1.017 0.5707255 0.0085902736 -0.62470573 0.84620249
9.8769999 3.3410001 -1.021 0.56976199 -0.0015640333 -0.62721527 0.84736657
9.8719997 3.3559999 -1.021 0.57002783 -0.0050523356 -0.62405783 0.8452251
9.8710003 3.3900001 -1.022 0.56467038 -0.034952246 -0.62254423 0.84121084
9.8879995 3.431 -1.026 0.55575126 -0.06432303 -0.6223672 0.83686191
9.8739996 3.461 -1.025 0.54311794 -0.093472824 -0.62546659 0.83362025
10.095 3.573 -1.054 -0.27422592 0.36885566 -0.29283202 0.5449816
9.8909998 3.5369999 -1.03 0.54061532 -0.11773046 -0.62361312 0.83367783
9.8889999 3.5710001 -1.031 0.52851921 -0.13962546 -0.61957866 0.82625997
13.979 1.897 -1.533 0.13240501 -0.32341105 -0.20967883 0.40754262
13.763 1.9119999 -1.507 -0.0048291013 0.53929776 -0.42124709 0.68433505
13.334 1.8940001 -1.454 0.43126631 0.25151214 -0.43053189 0.6592471
13.335 1.916 -1.455 0.22566174 0.4836573 -0.52702099 0.75006586
13.335 1.9579999 -1.455 0.14029524 0.51229501 -0.5045858 0.7326225
13.345 2.003 -1.457 0.11683015 0.52023864 -0.48621386 0.72159648
13.334 2.0439999 -1.457 0.13681875 0.50188231 -0.4476335 0.68628055
13.334 2.0869999 -1.4579999 0.13329437 0.49520156 -0.39877018 0.64962268
13.329 2.1289999 -1.4579999 0.12422452 0.49821642 -0.39807919 0.64970636
11.826 1.924 -1.272 0.096200854 0.58058274 -0.42645171 0.72676814
11.598 1.905 -1.244 0.095238373 0.57116896 -0.44200754 0.72847444
11.368 1.904 -1.216 0.10427273 0.56925923 -0.46313497 0.74123067
10.959 1.905 -1.166 0.11231045 0.57198083 -0.48659995 0.75931233
10.926 1.9349999 -1.163 0.1036349 0.57201868 -0.48683691 0.7582584
10.799 1.947 -1.148 0.10728342 0.56712937 -0.50184417 0.76484835
10.347 1.915 -1.0930001 0.19617905 0.53864652 -0.56981426 0.8082788
10.302 1.9400001 -1.0880001 0.2185867 0.53429312 -0.57465172 0.81453907
10.219 1.957 -1.0779999 0.26641473 0.52239281 -0.58874327 0.83095706
10.153 1.977 -1.071 0.32042077 0.4932062 -0.59762961 0.83850044
10.094 1.999 -1.064 0.33367807 0.49282199 -0.59100896 0.83875275
10.076 2.0280001 -1.063 0.34631419 0.48573101 -0.5900923 0.83909303
10.035 2.053 -1.058 0.38462165 0.45789209 -0.60394853 0.84991342
10.066 2.108 -1.063 0.38749519 0.45783091 -0.60414499 0.85132414
10.018 2.131 -1.058 0.42416668 0.4300043 -0.60528713 0.85509861
9.901 2.1389999 -1.044 0.4770987 0.37912661 -0.58584094 0.84532225
10.091 2.247 -1.0700001 0.47504532 0.35260102 -0.64486897 0.87512946
10.066 2.2739999 -1.068 0.49385777 0.3314392 -0.6307199 0.86692274
9.948 2.2639999 -1.053 0.52861971 0.2950756 -0.59101379 0.846053
9.9099998 2.2880001 -1.049 0.54480094 0.24946991 -0.59638578 0.8454107
10.009 2.3440001 -1.063 0.54730731 0.22638701 -0.63043886 0.8650142
9.8109999 2.362 -1.04 0.5646137 0.1931944 -0.58457506 0.83536857
9.8360004 2.401 -1.044 0.56683487 0.15911797 -0.60715252 0.84572721
9.8330002 2.4330001 -1.044 0.56919098 0.15308882 -0.6018554 0.84240401
9.8599997 2.4560001 -1.048 0.56734908 0.14854445 -0.61212754 0.8477326
9.9329996 2.5079999 -1.058 0.57453501 0.12919641 -0.62334806 0.85752261
9.948 2.5450001 -1.061 0.56620681 0.13012852 -0.64897764 0.87103128
9.9610004 2.582 -1.064 0.56766772 0.1330926 -0.64377081 0.8685627
9.9779997 2.6199999 -1.067 0.57008398 0.11637083 -0.65615654 0.87697166
9.9729996 2.652 -1.068 0.5702123 0.099041447 -0.65775341 0.87612259
9.9729996 2.6849999 -1.069 0.57265681 0.045478284 -0.64606571 0.86452585
9.9630003 2.7 -1.068 0.57455552 0.049567532 -0.64157879 0.86266696
9.9540005 2.7309999 -1.068 0.57443893 0.049617499 -0.6413399 0.86241454
9.9359999 2.7590001 -1.067 0.5799799 0.030532841 -0.6285007 0.85575819
9.9560003 2.799 -1.0700001 0.58675885 0.053315986 -0.62614554 0.85975969
9.9560003 2.8329999 -1.072 0.58558345 0.055209257 -0.63039488 0.86217964
9.9460001 2.8629999 -1.071 0.58864248 0.069917329 -0.62417495 0.86080354
9.868 2.875 -1.063 0.582259 0.055984709 -0.62906265 0.85899919
9.9020004 2.901 -1.067 0.58752847 0.072048038 -0.62564713 0.86128682
9.915 2.9389999 -1.0700001 0.58748102 0.083395064 -0.62738895 0.8635425
9.9689999 2.9890001 -1.0779999 0.58992732 0.093760163 -0.620103 0.86100692
9.9519997 3.0179999 -1.077 0.58900988 0.082290351 -0.62037873 0.85940331
9.9860001 3.063 -1.0829999 0.57598984 0.076455772 -0.63136268 0.85803765
9.9759998 3.0940001 -1.0829999 0.57748491 0.055620678 -0.62355292 0.8517046
9.9700003 3.1270001 -1.084 0.57910895 0.054882862 -0.61774945 0.84852445
9.9879999 3.1500001 -1.086 0.57523781 0.051227037 -0.6299994 0.85464728
9.9759998 3.181 -1.086 0.57503742 0.027220901 -0.62284881 0.84814483
9.9720001 3.214 -1.087 0.57429188 0.020384595 -0.62234306 0.84707588
9.9429998 3.2390001 -1.085 0.57976019 0.021474667 -0.60948133 0.84145737
9.8760004 3.3199999 -1.08 0.57857937 0.0073065832 -0.60534364 0.83740574
9.8710003 3.336 -1.08 0.57508385 -0.0010057613 -0.6093024 0.83783758
10.029 3.425 -1.102 0.55520332 -0.068835393 -0.62657094 0.83998817
10.063 3.4719999 -1.108 0.54074919 -0.099380955 -0.61955726 0.82833415
10.075 3.5120001 -1.1109999 0.53100872 -0.11539336 -0.62278444 0.82652664
10.118 3.598 -1.119 -0.25750166 0.41877669 -0.34154481 0.59860992
10.206 3.648 -1.131 -0.20029765 0.49190986 -0.41046906 0.67125201
10.14 3.6600001 -1.124 -0.21112719 0.4668265 -0.35420898 0.6228689
9.9350004 3.6210001 -1.099 0.51357234 -0.16695273 -0.60444027 0.81054169
10.106 3.72 -1.123 -0.20955187 0.46177644 -0.37191537 0.62886447
13.903 1.863 -1.595 0.062296428 0.50039256 -0.68826205 0.85321641
13.803 1.8940001 -1.5829999 0.11842293 0.51841915 -0.54649407 0.76252097
13.419 1.885 -1.534 0.31722879 -0.18694708 -0.21578008 0.42678374
13.351 1.918 -1.526 0.096398354 0.51758546 -0.62936163 0.82053852
13.337 1.959 -1.525 0.15241353 0.50401235 -0.55757987 0.76691175
13.36 2.006 -1.529 0.12948737 0.50686961 -0.48185116 0.71124142
13.327 2.0220001 -1.525 0.0799063 0.52129585 -0.50232136 0.72832763
13.297 2.0599999 -1.522 0.01002761 0.5315178 -0.47147095 0.71056074
13.365 2.1140001 -1.531 0.044865996 0.51050109 -0.36747813 0.63060647
11.852 1.916 -1.336 0.096129708 0.57978219 -0.41972768 0.72219086
11.562 1.9069999 -1.3 0.098687693 0.57007128 -0.43434322 0.72344631
11.341 1.9069999 -1.272 0.10126379 0.56878495 -0.45387951 0.73469537
11.053 1.895 -1.235 0.1159578 0.57471037 -0.47894746 0.75705278
10.86 1.88 -1.21 0.10231292 0.56421876 -0.49009395 0.75432277
10.848 1.913 -1.21 0.10467899 0.56786293 -0.49285823 0.75916749
10.542 1.8940001 -1.171 0.12445969 0.56027865 -0.51940221 0.77406788
10.44 1.91 -1.158 0.14518826 0.55756038 -0.52962732 0.78259718
10.225 1.904 -1.131 0.22441489 0.54117042 -0.56144893 0.81145078
10.227 1.938 -1.132 0.24254233 0.53457522 -0.56898248 0.81751972
10.188 1.964 -1.128 0.29281488 0.50856543 -0.58968586 0.83193076
10.12 1.967 -1.119 0.330975 0.49190512 -0.59272045 0.83835113
10.054 1.987 -1.112 0.35385171 0.48051012 -0.58434027 0.83519727
10.018 2.013 -1.108 0.37158456 0.47779498 -0.56309038 0.82670063
9.9709997 2.036 -1.102 0.40159088 0.4532035 -0.56802988 0.830257
9.9139996 2.0569999 -1.096 0.42784876 0.42746884 -0.5579645 0.82286602
9.8859997 2.0840001 -1.0930001 0.45133361 0.40654397 -0.56029302 0.82638264
9.8559999 2.1099999 -1.09 0.46373791 0.39485192 -0.55663115 0.82510555
9.8590002 2.1270001 -1.091 0.47065848 0.38787812 -0.5518465 0.82249826
9.9390001 2.177 -1.102 0.48159412 0.38020641 -0.56273776 0.83256447
9.9230003 2.2060001 -1.101 0.50796843 0.34941173 -0.56323606 0.83507806
9.823 2.2160001 -1.089 0.54008448 0.29404575 -0.54997653 0.82500201
9.6199999 2.2030001 -1.063 0.56391162 0.21773264 -0.47571415 0.76922542
9.8140001 2.279 -1.089 0.56013095 0.24736133 -0.55174416 0.82423049
9.7939997 2.3069999 -1.0880001 0.56968176 0.22584543 -0.53523332 0.81364501
9.7880001 2.322 -1.087 0.57407713 0.20717013 -0.54270506 0.81670851
9.816 2.3940001 -1.0930001 0.57325172 0.16421102 -0.57297593 0.8269729
9.8140001 2.4260001 -1.094 0.57675189 0.15347269 -0.56349295 0.82080501
9.7889996 2.4519999 -1.091 0.578767 0.14907633 -0.55468857 0.81539828
9.875 2.507 -1.104 0.57779026 0.13327873 -0.58653998 0.83404672
9.9099998 2.549 -1.109 0.57654154 0.12515837 -0.60476631 0.84487104
9.9060001 2.5639999 -1.109 0.57563311 0.12524241 -0.60834306 0.84682959
9.9130001 2.599 -1.112 0.57509339 0.13126937 -0.61739355 0.85389626
9.9219999 2.635 -1.114 0.5808816 0.099322066 -0.60948884 0.84780008
9.9209995 2.668 -1.115 0.58053923 0.071107909 -0.61110097 0.84588802
9.9130001 2.6989999 -1.115 0.5796867 0.051631853 -0.61021167 0.84324419
9.9180002 2.734 -1.117 0.58629251 0.036338616 -0.60890698 0.84606564
9.9049997 2.7639999 -1.1160001 0.58363175 0.040272322 -0.60977381 0.8450278
9.9110003 2.7820001 -1.117 0.5843212 0.046342809 -0.6097883 0.84582549
9.9110003 2.816 -1.119 0.58305997 0.052440826 -0.61928618 0.85218799
9.868 2.8369999 -1.114 0.58287704 0.049202077 -0.614245 0.84821188
9.8920002 2.878 -1.118 0.5871731 0.059832249 -0.61368716 0.85144824
9.9069996 2.9159999 -1.122 0.5878554 0.084869474 -0.61585021 0.85559821
9.9130001 2.9519999 -1.124 0.59458399 0.084855512 -0.60273933 0.85089678
9.9060001 2.983 -1.124 0.59217221 0.089784831 -0.6001178 0.84786236
9.9160004 3.003 -1.126 0.59388471 0.08652591 -0.6030935 0.85082757
9.9029999 3.033 -1.125 0.59219939 0.079236582 -0.59652293 0.84428561
9.9110003 3.0699999 -1.128 0.59529161 0.074692763 -0.59605682 0.84571558
9.9219999 3.1070001 -1.131 0.58258158 0.056583367 -0.60516363 0.84191805
9.9329996 3.145 -1.133 0.58257455 0.049450196 -0.60325438 0.84009182
9.9209995 3.1760001 -1.133 0.58191758 0.035908781 -0.6009981 0.83732682
9.927 3.1949999 -1.135 0.58410555 0.035011444 -0.59127116 0.83186942
9.8669996 3.2780001 -1.131 0.58184046 0.0088091046 -0.58093137 0.82225126
9.8509998 3.3069999 -1.13 0.58080244 0.0095684826 -0.57730949 0.81896842
9.9940004 3.3900001 -1.151 0.57498425 -0.029685125 -0.60127485 0.83247799
9.8109999 3.3629999 -1.127 0.57922906 -0.0014550611 -0.58110577 0.82048297
10.014 3.467 -1.156 0.56247032 -0.068285286 -0.60300684 0.82743758
10.078 3.5420001 -1.1670001 0.52128494 -0.14764044 -0.59842455 0.80724692
10.05 3.5680001 -1.165 0.51902193 -0.15281004 -0.59655762 0.80536681
10.177 3.6489999 -1.184 -0.19847766 0.48614043 -0.37768641 0.64681751
9.9659996 3.609 -1.156 0.52763712 -0.15036151 -0.57529664 0.79496902
10.027 3.7019999 -1.168 -0.21482262 0.47249895 -0.39595747 0.65282947
14.07 1.6390001 -1.711 0.245717 -0.0016380623 -0.088126838 0.26104763
14.055 1.682 -1.71 0.24987414 0.00056362897 -0.088115633 0.26495618
14.089 1.709 -1.715 0.23779483 -0.011958376 -0.088319123 0.25394812
14.117 1.757 -1.719 -0.14934933 -0.21352422 -0.089107662 0.27538699
14.104 1.801 -1.7180001 0.23262036 -0.061792914 -0.097383648 0.25964239
14.13 1.849 -1.723 0.21835561 -0.086186409 -0.096872449 0.25395185
14.084 1.888 -1.717 0.23075679 -0.12564443 -0.11918357 0.28851333
13.537 1.966 -1.646 0.21167447 0.15281439 -0.077946126 0.272459
13.529 2.0079999 -1.645 0.29198635 0.059354603 -0.11817682 0.32053822
13.544 2.0539999 -1.648 0.23087175 0.23804687 -0.12497401 0.35438198
11.784 1.954 -1.4119999 0.095263466 0.57865834 -0.41144985 0.71638787
11.504 1.944 -1.374 0.093605213 0.57361203 -0.47587943 0.75116837
11.219 1.932 -1.336 0.10462816 0.56652087 -0.45656076 0.73507869
11.252 1.974 -1.342 0.11437041 0.56573141 -0.44968832 0.73167771
10.834 1.9349999 -1.285 0.091982342 0.56683517 -0.49446085 0.75779575
10.741 1.9349999 -1.273 0.097553298 0.56061798 -0.4950363 0.75423479
10.456 1.9170001 -1.235 0.14150748 0.55948943 -0.50316703 0.76565647
10.382 1.937 -1.225 0.15328434 0.55559087 -0.51104265 0.77028686
10.214 1.939 -1.2029999 0.25044993 0.53447372 -0.53368729 0.7957446
10.123 1.954 -1.191 0.30734715 0.51272804 -0.54508346 0.80899215
10.062 1.975 -1.184 0.35878393 0.47922045 -0.5762915 0.83095729
10.011 1.998 -1.178 0.38488692 0.46614152 -0.56972927 0.8306728
9.9809999 2.0079999 -1.174 0.38848749 0.46660197 -0.5536139 0.82166189
9.9469995 2.0339999 -1.17 0.42176992 0.43263367 -0.55010068 0.81711233
9.9309998 2.063 -1.169 0.44378909 0.42382008 -0.53096294 0.81147635
9.8879995 2.086 -1.164 0.45881346 0.40363497 -0.53162223 0.80997109
9.8830004 2.118 -1.164 0.47259599 0.39052141 -0.51942211 0.80352551
9.875 2.148 -1.164 0.50445604 0.3582814 -0.51700163 0.80630773
9.9200001 2.191 -1.171 0.50843024 0.35254169 -0.51737082 0.80651069
9.9379997 2.2279999 -1.175 0.52432454 0.3155933 -0.52879089 0.80878621
9.9390001 2.244 -1.175 0.53018743 0.30312383 -0.53855765 0.81426477
10.003 2.2920001 -1.1849999 0.53273368 0.29206479 -0.56347197 0.82861793
9.8699999 2.2939999 -1.168 0.55543333 0.24738918 -0.52062863 0.80047596
9.8280001 2.3169999 -1.163 0.56619173 0.2147585 -0.52781534 0.80329531
9.8339996 2.3510001 -1.165 0.56865501 0.20858115 -0.53318739 0.80694693
9.8100004 2.3770001 -1.1619999 0.57484972 0.17897026 -0.54132748 0.80964065
9.8190002 2.3959999 -1.164 0.57405502 0.18348345 -0.53938788 0.80879211
9.8249998 2.4300001 -1.166 0.57928276 0.15676992 -0.54042947 0.80759478
9.8210001 2.4619999 -1.1670001 0.58124614 0.13577917 -0.5503068 0.81186241
9.8290005 2.497 -1.169 0.57987732 0.13947718 -0.55675912 0.81589973
9.8249998 2.529 -1.169 0.58429307 0.12429752 -0.54888856 0.81125021
9.8249998 2.562 -1.17 0.5847618 0.12136304 -0.54727745 0.8100543
9.8219995 2.5940001 -1.171 0.58824944 0.096301772 -0.54933757 0.81060672
9.8199997 2.6099999 -1.171 0.58876956 0.088548817 -0.54716229 0.80862665
9.823 2.6440001 -1.173 0.58805394 0.064778 -0.55258977 0.80954254
9.8170004 2.675 -1.173 0.58801222 0.064495191 -0.56358677 0.81703615
9.8199997 2.7090001 -1.175 0.58678412 0.048431285 -0.56382585 0.81520599
9.8170004 2.7420001 -1.176 0.58395499 0.046023235 -0.57886952 0.82353598
9.8120003 2.7739999 -1.176 0.58527374 0.053753015 -0.57445151 0.82184505
9.8210001 2.809 -1.179 0.58257085 0.044745773 -0.58575964 0.82734835
9.8219995 2.8269999 -1.179 0.58319092 0.051028367 -0.58500409 0.82761425
9.8149996 2.858 -1.1799999 0.58432466 0.049659096 -0.57889026 0.82402384
9.8170004 2.892 -1.181 0.58618784 0.041794382 -0.58383304 0.82838637
9.8190002 2.9260001 -1.183 0.58868968 0.058830116 -0.58730149 0.83363032
9.8140001 2.9579999 -1.183 0.58933979 0.066177212 -0.58652288 0.83409226
9.816 2.993 -1.1849999 0.59180629 0.066343755 -0.57191813 0.82566732
9.8219995 3.0280001 -1.187 0.59353924 0.080456264 -0.56498438 0.82338899
9.823 3.0450001 -1.188 0.59664595 0.069710888 -0.56641585 0.82563484
9.8389997 3.085 -1.192 0.59677976 0.064604752 -0.56407493 0.8237114
9.8260002 3.1140001 -1.191 0.59656769 0.06853237 -0.56653011 0.82555801
9.8219995 3.1470001 -1.192 0.59729385 0.050111204 -0.55429679 0.81640434
9.8339996 3.1849999 -1.1950001 0.5962981 0.044597667 -0.55740517 0.81747228
9.8319998 3.2190001 -1.196 0.58557343 0.025545519 -0.55862808 0.80970001
9.835 3.2539999 -1.198 0.58344936 0.013579145 -0.56199956 0.81021053
9.8339996 3.2709999 -1.199 0.58213598 0.011108346 -0.56338477 0.81019014
9.8500004 3.3099999 -1.202 0.58399016 0.0080127344 -0.55766457 0.80752617
9.835 3.3399999 -1.202 0.58223778 -0.0019843876 -0.55740666 0.80604404
9.8430004 3.3770001 -1.204 0.58112073 -0.013773106 -0.54872996 0.79937202
9.835 3.4089999 -1.205 0.58431071 -0.014988206 -0.54677451 0.80037868
9.8459997 3.448 -1.2079999 0.57472056 -0.050741889 -0.55208868 0.79854888
