# .PCD v0.7 - Point Cloud Data file format
VERSION 0.7
FIELDS x y z normal_x normal_y normal_z curvature
SIZE 4 4 4 4 4 4 4
TYPE F F F F F F F
COUNT 1 1 1 1 1 1 1
WIDTH 109
HEIGHT 1
VIEWPOINT 0 0 0 1 0 0 0
POINTS 109
DATA ascii
-3.974 12.52 0.021 -0.1899181 0.40717945 -0.43504497 0.62540239
-4.0170002 12.52 0.021 -0.18847255 0.41068509 -0.43534902 0.62746549
-4.0349998 12.506 0.021 -0.18252616 0.40917689 -0.43507487 0.62452513
-3.8970001 12.588 -0.071000002 -0.19200826 0.40849766 -0.45574409 0.64143604
-3.934 12.568 -0.071000002 -0.19377351 0.40996483 -0.45590603 0.6430161
-3.9749999 12.561 -0.071000002 -0.19364095 0.409722 -0.45588174 0.64280409
-4.0180001 12.558 -0.071000002 -0.18070453 0.41707519 -0.48974413 0.66817302
-4.052 12.53 -0.071000002 -0.17850782 0.41442922 -0.48945057 0.66571653
-3.848 12.604 -0.139 -0.17683706 0.40823793 -0.48877263 0.6609298
-3.951 12.588 -0.139 -0.18453698 0.41570774 -0.48967281 0.66831601
-3.99 12.572 -0.139 -0.18370672 0.41460532 -0.48955846 0.66731793
-4.0279999 12.556 -0.139 -0.18070453 0.41707519 -0.48974413 0.66817302
-4.072 12.558 -0.14 -0.178508 0.41442961 -0.48945057 0.66571683
-4.0539999 12.532 -0.21699999 -0.1722265 0.42046335 -0.5060184 0.68007797
-4.0869999 12.501 -0.21699999 -0.17297742 0.41944677 -0.50593776 0.67958057
-4.073 12.543 -0.30399999 -0.17100814 0.42093036 -0.50631386 0.68027925
-4.0900002 12.531 -0.30399999 -0.16960487 0.4214085 -0.50920624 0.6823796
-4.0819998 12.51 -0.382 -0.076199755 0.44520172 -0.54266483 0.70604259
-4.0599999 12.487 -0.456 0.20332487 0.41330025 -0.54086471 0.71041727
-4.046 12.469 -0.53799999 0.19991261 0.41655773 -0.48499835 0.66985732
-4.0749998 12.533 -0.61299998 0.13017915 0.43529007 -0.4835206 0.66348791
-3.5350001 12.864 -0.71600002 0.32043231 -0.40231925 -0.31026098 0.60066593
-3.6570001 12.604 -0.70099998 -0.24665046 0.37996271 -0.48384613 0.66280854
-3.677 12.527 -0.69599998 -0.23498505 0.38556355 -0.48027048 0.65919417
-3.7119999 12.5 -0.69499999 -0.10294636 0.43388093 -0.48399976 0.65810817
-3.756 12.504 -0.69599998 -0.098045133 0.43574968 -0.4866477 0.66054267
-3.7609999 12.379 -0.68800002 -0.034257494 0.44508857 -0.54038477 0.70092303
-3.855 12.338 -0.68699998 -0.062067434 0.43546316 -0.59847409 0.74273264
-3.931 12.444 -0.69599998 -0.062799022 0.44065598 -0.47717571 0.65254736
-3.97 12.433 -0.69599998 -0.058377031 0.44128197 -0.51848936 0.68335122
-4.0770001 12.496 -0.70200002 0.075464889 0.44762447 -0.46499184 0.64983076
-3.484 12.731 -0.77100003 0.32303527 -0.42775556 -0.40802047 0.67365223
-3.664 12.68 -0.77100003 -0.18607964 0.40340623 -0.45560649 0.63634855
-3.684 12.602 -0.76599997 -0.18499129 0.41247705 -0.45926666 0.64442605
-3.723 12.588 -0.76599997 -0.16243924 0.41820633 -0.54270297 0.70413744
-3.7590001 12.565 -0.76499999 -0.17648885 0.40740877 -0.58140147 0.73154485
-3.767 12.45 -0.75700003 -0.14779046 0.39273655 -0.66462505 0.78600919
-3.806 12.436 -0.75700003 -0.11462031 0.41268027 -0.63507056 0.76600093
-3.8670001 12.426 -0.75700003 -0.084115714 0.41969967 -0.62967849 0.7613923
-3.9400001 12.522 -0.76599997 -0.11005533 0.42835432 -0.51230407 0.67679763
-3.9820001 12.517 -0.76599997 -0.10585564 0.42968139 -0.49218577 0.66187489
-4.052 12.602 -0.77399999 -0.055198442 0.43469566 -0.38655448 0.58432144
-4.0830002 12.56 -0.77200001 0.011690624 0.44772273 -0.44353783 0.63033175
-3.6589999 12.627 -0.85399997 -0.25417548 0.35424402 -0.60683829 0.74722606
-3.694 12.602 -0.852 -0.17132188 0.37901911 -0.66313183 0.78278381
-3.687 12.504 -0.84500003 -0.17939195 0.38955373 -0.64220923 0.77224755
-3.7260001 12.491 -0.84500003 -0.15615274 0.39306331 -0.66191709 0.7855041
-3.7579999 12.456 -0.84299999 -0.14185348 0.3992624 -0.6522122 0.77776194
-3.927 12.448 -0.84600002 -0.080948777 0.41947961 -0.60889894 0.74382371
-3.951 12.457 -0.847 -0.10447792 0.41747585 -0.59258199 0.73236269
-3.9890001 12.439 -0.847 -0.037171498 0.43390206 -0.591537 0.7345534
-4.0619998 12.532 -0.85600001 -0.085854188 0.43431184 -0.53928649 0.69773036
-4.0960002 12.503 -0.85399997 0.027138356 0.44531021 -0.55354559 0.71095031
-3.6830001 12.619 -0.92900002 -0.18195499 0.37995431 -0.64776295 0.77270287
-3.7219999 12.607 -0.92900002 -0.14535959 0.39458492 -0.6481427 0.77260315
-3.76 12.59 -0.92799997 -0.13466173 0.40137628 -0.63923132 0.76671594
-3.779 12.58 -0.92799997 -0.13393208 0.4014369 -0.63978213 0.76707923
-3.8329999 12.618 -0.93300003 -0.11882854 0.40724728 -0.63120294 0.76051807
-3.901 12.557 -0.92900002 -0.079097033 0.41954732 -0.62663424 0.75825244
-3.9400001 12.541 -0.92900002 -0.096346378 0.42445418 -0.59839368 0.73994529
-3.9809999 12.536 -0.93000001 -0.092492625 0.4252058 -0.59882569 0.74023443
-4.0120001 12.495 -0.92699999 -0.10170905 0.41808406 -0.60681218 0.74388176
-4.0419998 12.523 -0.93000001 -0.023188332 0.43920812 -0.57318568 0.72248411
-3.441 12.637 -1.003 0.28724483 -0.39939564 -0.28345722 0.56778032
-3.484 12.64 -1.0039999 0.33330557 -0.38390425 -0.32778883 0.60491371
-3.5250001 12.633 -1.005 0.27045685 -0.4325588 -0.31256741 0.59829122
-3.5610001 12.608 -1.003 0.29185751 -0.42648119 -0.3322826 0.614393
-3.6210001 12.593 -1.003 -0.1770853 0.38527474 -0.65159929 0.77741718
-3.6619999 12.586 -1.0039999 -0.14648885 0.4021804 -0.62195343 0.75500607
-3.704 12.586 -1.005 -0.13983671 0.40133095 -0.63294744 0.76239318
-3.7420001 12.566 -1.0039999 -0.12446576 0.40580305 -0.6349985 0.76380032
-3.846 12.77 -1.025 -0.11874919 0.40910634 -0.6421296 0.77058411
-3.8239999 12.554 -1.005 -0.11391147 0.4115603 -0.62907076 0.76032078
-3.8770001 12.515 -1.003 -0.089475974 0.41437253 -0.63656926 0.76480782
-3.921 12.518 -1.005 -0.089970186 0.41454628 -0.6325922 0.76165354
-3.9590001 12.502 -1.0039999 -0.058369476 0.4217748 -0.62946665 0.75995344
-3.997 12.487 -1.0039999 -0.10830618 0.40445328 -0.65799224 0.77991444
-4.0300002 12.454 -1.002 -0.065743521 0.42025563 -0.64432514 0.77206987
-3.6570001 12.577 -1.086 -0.1545798 0.38329536 -0.66966629 0.78693277
-3.6530001 12.493 -1.0779999 -0.15353459 0.39775863 -0.64755905 0.77531767
-3.641 12.31 -1.061 -0.24410768 0.36473614 -0.61196673 0.75307655
-3.691 12.334 -1.064 -0.15929194 0.40314248 -0.62854087 0.76351911
-3.7509999 12.393 -1.072 -0.13943754 0.40720651 -0.63901585 0.77045524
-3.773 12.324 -1.066 -0.13590246 0.41716763 -0.60577565 0.74797219
-3.8759999 12.384 -1.074 -0.11067642 0.41109422 -0.64717531 0.77465063
-3.8599999 12.264 -1.063 -0.059431165 0.4306339 -0.62542176 0.76166266
-3.8940001 12.24 -1.061 0.040178753 0.43960482 -0.60131025 0.74594957
-3.9560001 12.298 -1.069 0.046391226 0.44067463 -0.59398067 0.74105287
-4.0500002 12.456 -1.086 -0.12985419 0.37964034 -0.70554864 0.81165743
-3.6359999 12.533 -1.1619999 -0.11185961 0.36371568 -0.74962175 0.840675
-3.665 12.488 -1.158 -0.099856451 0.36814412 -0.74847007 0.84006482
-3.665 12.341 -1.143 -0.13930795 0.38708472 -0.69909191 0.81115401
-3.704 12.403 -1.151 -0.12084444 0.38619149 -0.70540947 0.81323415
-3.7679999 12.474 -1.16 -0.11027965 0.37308949 -0.73523986 0.83182633
-3.8940001 12.466 -1.163 -0.084254265 0.37624735 -0.73098463 0.82643777
-3.928 12.437 -1.161 -0.081060939 0.37793496 -0.7331382 0.82879269
-3.957 12.394 -1.158 -0.065173566 0.38973704 -0.70897883 0.81166101
-4.0170002 12.446 -1.165 0.18212692 -0.43186748 -0.21904519 0.5173592
-4.0409999 12.453 -1.166 0.16713741 -0.43683803 -0.22029972 0.51700515
-3.8989999 12.27 -1.228 -0.0064601377 0.43759748 -0.61045533 0.75112516
-3.9879999 12.415 -1.2460001 -0.076514684 0.38461044 -0.72633135 0.82543135
-3.625 12.455 -1.319 -0.10837758 0.38165736 -0.72693282 0.82815421
-3.6500001 12.394 -1.313 -0.17806858 0.38952073 -0.65500337 0.78260094
-3.688 12.38 -1.312 -0.12885037 0.39797464 -0.68231785 0.80033988
-3.7520001 12.45 -1.322 -0.084904969 0.38650563 -0.72304952 0.82425481
-3.8710001 12.491 -1.331 -0.068291217 0.39641562 -0.70186496 0.80896443
-3.8529999 12.296 -1.309 -0.0088498769 0.43775687 -0.61054468 0.751315
-3.892 12.284 -1.309 0.0139072 0.44937155 -0.54058737 0.70310944
-3.9519999 12.338 -1.317 -0.004279023 0.4514159 -0.56216949 0.72099179
