# .PCD v0.7 - Point Cloud Data file format
VERSION 0.7
FIELDS x y z normal_x normal_y normal_z curvature
SIZE 4 4 4 4 4 4 4
TYPE F F F F F F F
COUNT 1 1 1 1 1 1 1
WIDTH 472
HEIGHT 1
VIEWPOINT 0 0 0 1 0 0 0
POINTS 472
DATA ascii
19.021999 -8.3809996 0.912 -0.17337544 0.10489184 -0.44440895 0.48842672
19.306 -8.3249998 0.92000002 0.20913298 0.035513133 -0.17769144 0.27671653
20.099001 -8.5909996 0.94800001 0.49534044 -0.33145466 -0.40094572 0.7183187
20.101999 -8.5179996 0.94700003 0.4938792 -0.31999457 -0.41369098 0.71934235
20.132 -8.4560003 0.94700003 0.4938792 -0.31999457 -0.41369098 0.71934235
17.424 -7.2579999 0.847 0.44563463 -0.083249658 -0.42306662 0.62008554
17.455999 -7.2069998 0.84799999 0.43912572 -0.089307547 -0.4187074 0.61328876
19.555 -7.9629998 0.92299998 0.46512643 -0.3498275 -0.37852046 0.69426191
19.504 -7.8000002 0.91900003 0.46255925 -0.36353248 -0.357384 0.68836057
19.598 -7.7659998 0.92199999 0.45662224 -0.39697149 -0.30591485 0.6779927
19.6 -7.6960001 0.921 0.45671386 -0.41657066 -0.3349731 0.70308298
19.608999 -7.6279998 0.921 0.45576915 -0.38037151 -0.31183526 0.67055887
19.618 -7.5609999 0.92000002 0.46139807 -0.35462806 -0.33831516 0.67313176
19.608999 -7.5219998 0.91900003 0.46139807 -0.35462806 -0.33831516 0.67313176
19.614 -7.454 0.91900003 0.46182168 -0.32434767 -0.3412866 0.65951288
19.625999 -7.388 0.91799998 0.45792603 -0.25921115 -0.32069498 0.61622393
19.483999 -7.2649999 0.912 0.42794344 -0.11647603 -0.36863077 0.57670695
20.079 -7.414 0.93300003 0.010769906 0.18162841 -0.51438576 0.54561669
20.363001 -7.4460001 0.94199997 0.039475396 0.17726561 -0.49388918 0.52622038
20.392 -7.3839998 0.94199997 0.041263599 0.17972514 -0.49583265 0.52901214
22.427999 -7.9200001 1.013 0.50594431 -0.3388989 -0.37707463 0.71625233
22.464001 -7.8530002 1.0140001 0.49425671 -0.41364005 -0.29886368 0.71042752
22.399 -7.6729999 1.01 0.48612216 -0.39780793 -0.30922109 0.70013112
22.461 -7.6149998 1.011 -0.39412519 -0.17392275 -0.11909312 0.44695297
22.441 -7.5689998 1.01 -0.34265146 -0.11720419 -0.086604476 0.37235358
22.410999 -7.4809999 1.008 0.46151629 -0.50433439 -0.29830894 0.74588114
22.833 -7.5419998 1.022 -0.058033768 0.15935779 -0.23474157 0.289597
20.195999 -8.9639997 0.81599998 0.4636918 -0.2020777 -0.37246984 0.62815547
19.188999 -8.4440002 0.78500003 0.14631033 0.087135851 -0.23980758 0.29412079
19.201 -8.3769999 0.78399998 0.13714048 0.096693337 -0.23869482 0.29177445
19.179001 -8.2959995 0.78299999 0.14127359 0.10612449 -0.24868339 0.30506402
20.044001 -8.5970001 0.80800003 0.48742124 -0.248763 -0.34577781 0.64732122
20.098 -8.5830002 0.80900002 0.48742124 -0.248763 -0.34577781 0.64732122
20.072001 -8.4969997 0.80800003 0.49850574 -0.31811446 -0.36450341 0.6946708
17.489 -7.335 0.73000002 0.42757314 -0.053389311 -0.46097052 0.63100159
17.422001 -7.243 0.727 0.43429899 -0.04637605 -0.46574584 0.6385026
19.58 -7.9990001 0.79000002 0.46444592 -0.36326909 -0.37857383 0.70070863
19.552999 -7.9159999 0.78799999 0.46328229 -0.37834185 -0.37196252 0.70436436
19.528 -7.8709998 0.787 0.46140561 -0.38054264 -0.37334251 0.70504785
19.517 -7.7950001 0.78600001 0.4617286 -0.37714788 -0.37188905 0.702663
19.547001 -7.7360001 0.78600001 0.45778638 -0.39101475 -0.38258177 0.713323
19.598 -7.6849999 0.787 0.45709896 -0.40530559 -0.38721517 0.72328943
19.607 -7.6170001 0.787 0.4643414 -0.35227492 -0.38657916 0.69939548
19.586 -7.5380001 0.78500003 0.46375182 -0.33232826 -0.4095774 0.70232576
19.572001 -7.4629998 0.78399998 0.46299791 -0.31765956 -0.40482825 0.69221425
19.587999 -7.4330001 0.78399998 0.46460986 -0.31735468 -0.40520078 0.69337147
19.774 -7.4330001 0.78899997 0.46090609 -0.39036039 -0.46200761 0.7604385
19.610001 -7.3010001 0.78399998 0.45611879 -0.18097517 -0.41345906 0.64167345
20.257 -7.4699998 0.80199999 0.048302021 0.19167265 -0.46689013 0.50700873
20.173 -7.368 0.79900002 0.046766292 0.20027211 -0.47463068 0.517272
22.413 -7.9099998 0.86199999 0.49833709 -0.33852327 -0.39575773 0.72080654
22.434999 -7.8390002 0.86199999 0.50381762 -0.35013443 -0.40492478 0.73511249
22.351999 -7.7309999 0.85900003 0.49258617 -0.39107391 -0.39515144 0.7427817
22.416 -7.6750002 0.86000001 0.49406716 -0.42836255 -0.35609818 0.7445823
22.452999 -7.6090002 0.86000001 0.49209088 -0.4359532 -0.37689024 0.75779605
22.43 -7.5219998 0.85900003 0.49209088 -0.4359532 -0.37689024 0.75779605
22.629 -7.5500002 0.86400002 -0.28196388 0.094794244 -0.36721474 0.47258464
20.25 -8.9700003 0.713 0.48446554 -0.38786474 -0.4464246 0.76448733
19.372 -8.5100002 0.69 0.25943261 0.027072102 -0.27178133 0.37670049
19.263 -8.3900003 0.68699998 0.13503183 0.095757097 -0.23748931 0.28948954
19.283001 -8.3269997 0.68699998 0.13463496 0.10683462 -0.24873775 0.30234197
20.091 -8.6000004 0.70599997 0.48753881 -0.25110507 -0.3620708 0.65714771
20.142 -8.5469999 0.70700002 0.48210141 -0.22762267 -0.36472899 0.64595753
19.982 -8.4420004 0.70200002 0.49621996 -0.31230971 -0.37063316 0.69364291
20.106001 -8.4200001 0.70499998 0.49664354 -0.3097066 -0.37331605 0.69421744
17.472 -7.256 0.639 0.41121325 -0.011591345 -0.4796913 0.63192916
19.632 -8.0780001 0.69199997 0.4652366 -0.31508482 -0.37140462 0.67354655
19.601 -7.993 0.69 0.46451423 -0.36268944 -0.37203243 0.69693989
19.6 -7.921 0.69 0.46316788 -0.37953979 -0.37211141 0.7050119
19.538 -7.8249998 0.68800002 0.4605248 -0.36787006 -0.38260156 0.7027058
19.58 -7.8060002 0.68800002 0.46244451 -0.36437067 -0.38215983 0.70190245
19.610001 -7.7459998 0.68800002 0.46034116 -0.38291162 -0.39304537 0.71625412
19.610001 -7.6750002 0.68800002 0.46268767 -0.36775851 -0.4016141 0.71457684
19.628 -7.612 0.68800002 0.46202296 -0.3602429 -0.40491864 0.71217924
19.648001 -7.5479999 0.68800002 0.46435699 -0.3424941 -0.38996229 0.69641954
19.646 -7.4770002 0.68699998 0.46807927 -0.32000884 -0.40207011 0.69510019
19.662001 -7.4120002 0.68699998 0.46840459 -0.27238372 -0.3998737 0.67342019
19.475 -7.3070002 0.68199998 0.45287615 -0.18348457 -0.44784313 0.66281736
19.691 -7.3169999 0.68699998 0.46071333 -0.20779869 -0.40279585 0.64628285
20.318001 -7.4770002 0.70099998 0.02867328 0.203183 -0.46446225 0.5077703
20.500999 -7.4710002 0.70499998 0.045992583 0.19920906 -0.46587157 0.50875914
22.458 -7.9029999 0.75099999 0.49978164 -0.33092818 -0.39454743 0.71760911
22.396999 -7.724 0.74800003 0.48977658 -0.41189373 -0.38569036 0.74719113
22.461 -7.6669998 0.74900001 0.49310857 -0.40818906 -0.3887485 0.74893242
22.468 -7.5910001 0.74800003 0.49110866 -0.41801816 -0.39512673 0.75634122
22.372 -7.48 0.74599999 0.43015885 -0.54944837 -0.39302838 0.80087543
22.599001 -7.4770002 0.75 -0.20972878 0.14942676 -0.40152398 0.47700736
20.186001 -8.915 0.54299998 0.47927922 -0.25617513 -0.39460957 0.67160332
20.184999 -8.8389997 0.54299998 0.48219734 -0.25294608 -0.35879976 0.65209913
19.107 -8.2939997 0.52499998 0.13391766 0.10463092 -0.23683879 0.29150331
19.263 -8.29 0.52700001 -0.18194872 0.10029787 -0.18352322 0.27721071
20.101999 -8.5780001 0.54000002 0.48151109 -0.2328842 -0.39581341 0.66539931
20.091999 -8.4989996 0.54000002 0.4792729 -0.22336592 -0.39233077 0.65842104
20.1 -8.4280005 0.53899997 0.48375911 -0.23016113 -0.40362492 0.67075336
17.445999 -7.2789998 0.495 0.2963796 0.12344399 -0.44618711 0.54969287
19.561001 -8.0209999 0.52899998 0.45459718 -0.43321502 -0.35295966 0.72035712
19.514999 -7.9310002 0.528 0.46255058 -0.32607114 -0.36854437 0.67535204
19.555 -7.875 0.528 0.46206683 -0.34692305 -0.38137379 0.69232023
19.530001 -7.7940001 0.528 0.46250835 -0.33954704 -0.39061037 0.69410563
19.597 -7.7490001 0.528 0.46197397 -0.36338189 -0.39923704 0.71053261
19.591999 -7.7119999 0.528 0.46008259 -0.36775601 -0.38978997 0.70629787
19.591999 -7.6409998 0.528 0.4628399 -0.357501 -0.39507508 0.70577055
19.605 -7.5749998 0.52700001 0.46497077 -0.35460001 -0.40712529 0.71252364
19.601999 -7.5029998 0.52700001 0.46561649 -0.34897953 -0.40989825 0.71175981
19.603001 -7.4330001 0.52700001 0.45817441 -0.37263954 -0.40412298 0.71561122
19.481001 -7.3169999 0.52399999 0.46287525 -0.21767844 -0.39877358 0.64858133
19.607 -7.2940001 0.52600002 0.46694732 -0.27968189 -0.42991456 0.6936053
20.223 -7.4879999 0.53600001 0.047273591 0.2128371 -0.43613937 0.48759818
20.268 -7.4320002 0.53600001 0.049378183 0.21698287 -0.43898413 0.49216545
22.448 -7.9159999 0.56999999 0.49978659 -0.35979199 -0.43029121 0.75125724
22.347 -7.7620001 0.56800002 0.49295491 -0.360892 -0.43456742 0.74973089
22.415001 -7.7069998 0.56800002 0.4755162 -0.45238745 -0.43599871 0.7879498
22.434999 -7.6350002 0.56800002 0.47422189 -0.45668399 -0.44529212 0.79481554
22.431 -7.5549998 0.56800002 0.46979874 -0.46995139 -0.44327527 0.79878539
22.601999 -7.5339999 0.56999999 -0.35951257 0.043388128 -0.38413399 0.52791166
20.125999 -8.9209995 0.43000001 0.48057848 -0.28410751 -0.42371812 0.7008636
20.118999 -8.8430004 0.42899999 0.47173682 -0.24751817 -0.4433209 0.69306153
18.983999 -8.2740002 0.417 0.012816938 0.15767223 -0.3824178 0.4138456
19.218 -8.3039999 0.419 0.1362323 0.11583868 -0.24788204 0.30565232
19.304001 -8.3050003 0.41999999 -0.2182246 0.068667501 -0.14268719 0.26962352
20.077 -8.5620003 0.428 0.47342402 -0.21543567 -0.42179775 0.66966867
20.042999 -8.474 0.42699999 0.46877509 -0.19244656 -0.45552912 0.68139017
17.42 -7.3039999 0.398 0.48224282 -0.26220074 -0.44809267 0.70858622
17.398001 -7.2309999 0.398 0.47468323 -0.35377774 -0.45068589 0.74404341
19.554001 -8.0509996 0.421 0.43558651 -0.49872845 -0.34150147 0.74504292
19.565001 -7.9840002 0.421 0.46423274 -0.32166171 -0.37022379 0.67531025
19.563999 -7.948 0.421 0.46401745 -0.32872766 -0.3651045 0.67577761
19.570999 -7.8790002 0.41999999 0.465684 -0.32428744 -0.37496051 0.68016124
19.577 -7.8099999 0.41999999 0.46434116 -0.33077991 -0.3768883 0.68342727
19.580999 -7.7399998 0.41999999 0.45990849 -0.36609447 -0.38503212 0.70270246
19.586 -7.671 0.41999999 0.46479332 -0.34018588 -0.39472955 0.69826263
19.58 -7.598 0.419 0.46209651 -0.36043382 -0.38304436 0.70012051
19.594999 -7.533 0.419 0.46160024 -0.34479678 -0.38333684 0.69203085
19.577 -7.4910002 0.419 0.46346015 -0.33136195 -0.39772272 0.69482332
19.593 -7.427 0.419 0.46002239 -0.36021382 -0.3954204 0.70550114
19.768 -7.4219999 0.421 0.44306043 -0.44398952 -0.41231298 0.75062054
19.982 -7.4310002 0.42300001 0.0098752324 0.21136618 -0.44113883 0.48926133
20.336 -7.4889998 0.426 0.025366139 0.21948752 -0.41431448 0.46954733
20.483 -7.4699998 0.428 -0.0079221008 0.22097796 -0.41693199 0.47193888
22.434 -7.901 0.44800001 0.49737841 -0.30413291 -0.40937763 0.71237081
22.368 -7.7199998 0.44600001 0.48481438 -0.39210969 -0.38730806 0.73403168
22.431999 -7.6630001 0.447 0.47798061 -0.42273778 -0.40098464 0.75363213
22.417999 -7.5799999 0.44600001 0.45923507 -0.4748773 -0.39668888 0.77056307
22.458 -7.5539999 0.447 0.42655644 -0.56026202 -0.36029786 0.79098576
17.372999 -7.6810002 0.26699999 0.43411946 -0.12230068 -0.22947112 0.50603771
17.377001 -7.618 0.26699999 0.47922918 -0.19565442 -0.31454152 0.60570425
20.049 -8.5690002 0.27599999 0.46388534 -0.26414973 -0.53599358 0.75647461
20.007 -8.5139999 0.27500001 0.46024892 -0.24976286 -0.53806865 0.75081849
19.999001 -8.4359999 0.27500001 0.40559095 -0.10096987 -0.53185511 0.67643833
17.364 -7.257 0.266 0.49500927 -0.27342233 -0.43984839 0.71642202
19.521 -8.0179996 0.273 0.44796196 -0.42861345 -0.32765067 0.70123774
19.525 -7.948 0.273 0.46232915 -0.32583061 -0.36279505 0.67196286
19.530001 -7.8790002 0.273 0.46209413 -0.33131951 -0.36259323 0.6743719
19.535 -7.8449998 0.273 0.46150884 -0.32826579 -0.36749876 0.67513269
19.535 -7.7740002 0.273 0.46279776 -0.33488286 -0.37408009 0.6828354
19.539 -7.704 0.273 0.46808243 -0.32969379 -0.40404382 0.70074999
19.547001 -7.6360002 0.273 0.46492034 -0.34167594 -0.41089466 0.70832747
19.546 -7.566 0.273 0.4662419 -0.32518378 -0.42214537 0.70804852
19.540001 -7.493 0.273 0.46571621 -0.33032268 -0.42558384 0.71212798
19.582001 -7.4380002 0.273 0.46683908 -0.2938669 -0.42700201 0.69758672
19.740999 -7.4640002 0.273 0.46067715 -0.35162324 -0.42971912 0.72147131
19.546 -7.3189998 0.273 0.46872199 -0.28883535 -0.4397029 0.7046026
20.202 -7.494 0.27500001 0.016357424 0.21992981 -0.40465057 0.46084571
20.259001 -7.4429998 0.27500001 0.033592261 0.219152 -0.40523592 0.46192226
22.363001 -7.9400001 0.28200001 0.49602762 -0.30532101 -0.356022 0.68265361
22.368999 -7.8629999 0.28200001 0.48781812 -0.38442481 -0.36799121 0.72191864
22.296 -7.7589998 0.28099999 0.48671994 -0.37098318 -0.37675741 0.71865916
22.371 -7.7059999 0.28099999 0.48350057 -0.38592434 -0.36775503 0.71969032
22.403 -7.6389999 0.28099999 0.44343796 -0.49430704 -0.35953188 0.75514227
22.379 -7.552 0.28099999 0.40684411 -0.56436229 -0.39674044 0.80089319
22.579 -7.5409999 0.28200001 0.34514511 -0.65259445 -0.38494098 0.83257687
17.559 -7.7290001 0.177 0.45948052 -0.14571005 -0.30786592 0.57195735
17.357 -7.5110002 0.177 0.48397264 -0.1826404 -0.354691 0.62721026
17.549999 -7.5289998 0.177 0.46384951 -0.18095383 -0.33083993 0.59779239
19.924999 -8.4329996 0.17299999 0.37028953 -0.049051732 -0.52024698 0.64045089
19.931 -8.3620005 0.17299999 0.37028953 -0.049051732 -0.52024698 0.64045089
17.490999 -7.277 0.177 0.4737024 -0.17744902 -0.38584131 0.63620412
19.615 -8.085 0.17399999 0.45715177 -0.25192323 -0.33239657 0.61882192
19.620001 -8.0150003 0.17399999 0.4618023 -0.2673912 -0.34094933 0.63325024
19.631001 -7.948 0.17399999 0.46525833 -0.30206326 -0.35312805 0.65757656
19.639 -7.8790002 0.17399999 0.46478817 -0.32831383 -0.37294012 0.68036926
19.629 -7.8400002 0.17399999 0.46816295 -0.30915174 -0.38428015 0.68001658
19.646 -7.7750001 0.17399999 0.46557406 -0.34699306 -0.38706401 0.69784093
19.643999 -7.7030001 0.17399999 0.46646491 -0.34038308 -0.41335005 0.71014673
19.639999 -7.6300001 0.17399999 0.46545708 -0.31641757 -0.4359203 0.71189672
19.662001 -7.5679998 0.17399999 0.46555275 -0.31095243 -0.43918577 0.7115581
19.646999 -7.4910002 0.17399999 0.46679059 -0.30469486 -0.45217809 0.71777254
19.603001 -7.4039998 0.17399999 0.46544421 -0.31116062 -0.44136852 0.71292734
19.849001 -7.461 0.17399999 -0.060301848 0.21779123 -0.37241492 0.43561703
19.674999 -7.3260002 0.17399999 0.46272406 -0.2708129 -0.47603175 0.71697938
20.344 -7.5009999 0.17299999 0.01069709 0.21990037 -0.40117529 0.45761579
20.372999 -7.4390001 0.17299999 0.01069709 0.21990037 -0.40117529 0.45761579
22.486 -7.9289999 0.17 0.49393097 -0.36803085 -0.37969664 0.72359103
22.421 -7.7480001 0.17 0.46722129 -0.45320758 -0.40237436 0.76524377
22.507999 -7.6989999 0.17 0.46526971 -0.47567773 -0.38813066 0.77031851
22.5 -7.6170001 0.17 0.45078933 -0.4986572 -0.38780457 0.77605563
22.509001 -7.5419998 0.17 0.41724175 -0.5607971 -0.4013333 0.80601025
22.724001 -7.5339999 0.169 -0.25806278 0.15386978 -0.44775268 0.53921682
17.497 -7.744 0.055 0.4692935 -0.14284736 -0.33337048 0.59310848
17.49 -7.6750002 0.055 0.46958637 -0.12802777 -0.3623915 0.60681963
17.493999 -7.6110001 0.056000002 0.47708857 -0.18076117 -0.36939901 0.62987596
17.563 -7.5760002 0.055 0.47708857 -0.18076117 -0.36939901 0.62987596
17.412001 -7.4460001 0.057 0.48225325 -0.17911616 -0.36900288 0.63309866
17.406 -7.3790002 0.057 0.4823494 -0.19843838 -0.3665728 0.63750637
19.714001 -8.2880001 0.037 0.35208941 -0.072224915 -0.55574548 0.66184324
17.422001 -7.289 0.057 0.48310792 -0.16535515 -0.37340814 0.63258928
17.423 -7.2249999 0.057 0.47705054 -0.12706313 -0.39091992 0.62971473
19.566 -8.0450001 0.039000001 0.46440592 -0.28646439 -0.37720236 0.66333729
19.566999 -7.974 0.039000001 0.46625754 -0.28146443 -0.38393873 0.6663537
19.580999 -7.908 0.039000001 0.46612617 -0.30869824 -0.38371247 0.67808813
19.576 -7.8340001 0.039999999 0.46855935 -0.29809535 -0.38858157 0.67779374
19.586 -7.7670002 0.039999999 0.46841127 -0.28295881 -0.38608915 0.66973102
19.583 -7.73 0.039999999 0.46699572 -0.2909629 -0.39873087 0.67950773
19.579 -7.658 0.039999999 0.46656471 -0.30966356 -0.41311204 0.69587046
19.594 -7.5929999 0.039999999 0.46694368 -0.29619449 -0.41631183 0.69215828
19.575001 -7.5139999 0.041000001 0.4738411 -0.28616068 -0.42385441 0.69718426
19.499001 -7.415 0.041000001 0.47243458 -0.2306779 -0.46551281 0.7022171
19.601 -7.3829999 0.041000001 0.46852639 -0.2712602 -0.43509057 0.6945523
19.594 -7.3109999 0.041000001 0.4651351 -0.2904458 -0.45831817 0.71467823
20.157 -7.4850001 0.035999998 0.012519214 0.22128278 -0.4300293 0.48378506
20.197001 -7.428 0.035999998 0.012519214 0.22128278 -0.4300293 0.48378506
20.525999 -7.4770002 0.034000002 0.034091905 0.21929219 -0.42558685 0.47997448
22.424 -7.9320002 0.017999999 0.49373597 -0.31147999 -0.37740192 0.69514543
22.427999 -7.8540001 0.018999999 0.48098186 -0.40106383 -0.37675387 0.73084831
22.386 -7.7210002 0.018999999 0.47430083 -0.41371903 -0.38176227 0.73611623
22.43 -7.6570001 0.018999999 0.45586032 -0.47145814 -0.39687511 0.766545
22.424 -7.5770001 0.018999999 0.4454872 -0.49597394 -0.40986866 0.78258628
22.535 -7.5349998 0.018999999 0.37895387 -0.59938836 -0.41467774 0.82148039
17.506001 -7.7049999 -0.063000001 0.47017512 -0.12117757 -0.39107013 0.62344563
17.509001 -7.6729999 -0.061999999 0.47547698 -0.14025143 -0.38938025 0.63036954
17.493999 -7.6009998 -0.061999999 0.48402911 -0.18266395 -0.38420928 0.64441222
17.552999 -7.5609999 -0.061999999 0.48064417 -0.1864136 -0.38585556 0.64393586
17.426001 -7.4419999 -0.059999999 0.48251447 -0.16114557 -0.40254891 0.64871699
17.398001 -7.3649998 -0.059 0.47870165 -0.13850656 -0.42440265 0.65456623
19.716 -8.2700005 -0.093999997 0.34431812 -0.00011479855 -0.40954164 0.53505081
17.421 -7.2470002 -0.059 0.48150083 -0.13759595 -0.42734385 0.65833002
17.462 -7.2319999 -0.059 0.47596088 -0.13823625 -0.42658001 0.65392548
19.558001 -8.0240002 -0.090999998 0.46671924 -0.29058072 -0.39196223 0.67520249
19.58 -7.961 -0.090999998 0.46860453 -0.27805531 -0.40829656 0.6808899
19.573 -7.8870001 -0.090000004 0.46638414 -0.33933449 -0.38800821 0.69513482
19.580999 -7.8189998 -0.090000004 0.46673599 -0.29816002 -0.39246333 0.67879993
19.607 -7.7579999 -0.090000004 0.46658793 -0.28256464 -0.38592803 0.66819721
19.584999 -7.678 -0.089000002 0.47380796 -0.27982426 -0.39302358 0.67621237
19.490999 -7.6059999 -0.088 0.47257584 -0.24644479 -0.39184377 0.66151679
19.162001 -7.4089999 -0.082000002 -0.095050715 -0.4676401 0.027905792 0.47801739
19.531 -7.4809999 -0.088 0.47075817 -0.21550921 -0.41497126 0.66351986
19.513 -7.4039998 -0.086999997 0.47120652 -0.20062368 -0.4165976 0.66018105
19.601999 -7.3670001 -0.088 0.47157803 -0.2635994 -0.45554319 0.70667541
19.577999 -7.2880001 -0.086999997 0.47461241 -0.26615992 -0.42594746 0.69103491
20.233 -7.4590001 -0.097000003 0.011527713 0.22981551 -0.43548429 0.49253896
20.254 -7.4299998 -0.097000003 0.011527713 0.22981551 -0.43548429 0.49253896
22.423 -7.9050002 -0.12800001 0.49357054 -0.30520508 -0.40840417 0.70961678
22.412001 -7.822 -0.127 0.48447448 -0.36969262 -0.42374027 0.74225599
22.353001 -7.723 -0.126 0.48364067 -0.37400317 -0.4264276 0.74540401
22.400999 -7.6999998 -0.126 0.47908825 -0.39766306 -0.41114014 0.74612176
22.427 -7.631 -0.127 0.47157225 -0.42747349 -0.3992871 0.75136155
22.415001 -7.5479999 -0.126 0.46199372 -0.43515682 -0.4144519 0.75800395
22.591 -7.5279999 -0.12800001 -0.30165023 0.12939498 -0.43658933 0.54621071
17.504 -7.7470002 -0.19599999 0.48241293 -0.16475436 -0.4318313 0.66809022
17.525999 -7.6919999 -0.19599999 0.47661775 -0.13984641 -0.42875785 0.65616673
17.525999 -7.6259999 -0.19599999 0.48153123 -0.15563989 -0.43348408 0.66633666
17.599001 -7.625 -0.197 0.47554269 -0.15246744 -0.4365786 0.66331595
17.492001 -7.513 -0.19400001 0.48410621 -0.15814459 -0.41612601 0.65766966
19.455999 -8.2150002 -0.23800001 0.44395068 -0.22738735 -0.51549906 0.71731198
17.465 -7.3070002 -0.192 0.4802461 -0.13451372 -0.44698331 0.66971958
17.471001 -7.2449999 -0.191 0.48618716 -0.15520188 -0.44092566 0.67444867
19.608 -8.0629997 -0.23899999 0.45661929 -0.30819386 -0.49949545 0.74362648
19.587 -7.9460001 -0.23800001 0.46488279 -0.33798021 -0.44756901 0.72846729
19.613001 -7.8850002 -0.23800001 0.45948732 -0.36991414 -0.43100342 0.73056757
19.615999 -7.8150001 -0.23800001 0.46203768 -0.33441544 -0.42441708 0.71094471
19.618 -7.744 -0.237 0.46416607 -0.29937866 -0.39228147 0.6774677
19.608999 -7.6690001 -0.236 0.46863517 -0.299364 -0.36786917 0.6667574
19.612 -7.5999999 -0.236 0.46661171 -0.28684214 -0.34693754 0.64835989
19.589001 -7.5549998 -0.235 0.46782911 -0.27475038 -0.34797692 0.64454621
19.618 -7.4959998 -0.235 0.46528777 -0.26574236 -0.34435123 0.63693762
19.621 -7.4260001 -0.235 0.46343392 -0.25742301 -0.33390567 0.6265226
19.541 -7.3260002 -0.23199999 0.46835774 -0.29550883 -0.33916998 0.64940029
20.143 -7.48 -0.245 0.03838494 0.23139709 -0.45713791 0.51380259
20.389999 -7.4990001 -0.25 0.072361194 0.22227961 -0.46479961 0.52027208
20.528 -7.4770002 -0.25299999 0.077893838 0.21607819 -0.49991331 0.55015504
22.458 -7.9039998 -0.294 0.48757339 -0.36820519 -0.38527548 0.72231579
22.409 -7.7290001 -0.292 0.47687975 -0.40690172 -0.41023862 0.74918562
22.459999 -7.6680002 -0.29300001 0.4083544 -0.54815143 -0.37902275 0.78158915
22.447001 -7.6240001 -0.292 0.40952593 -0.53677899 -0.38632399 0.77787489
22.518999 -7.5689998 -0.29300001 0.36309651 -0.58377671 -0.38178551 0.78638065
22.829 -7.5939999 -0.29899999 -0.090254873 0.21806285 -0.49231237 0.54595679
17.52 -7.7449999 -0.29499999 0.48434186 -0.17768443 -0.44595695 0.68193579
17.554001 -7.6939998 -0.29499999 0.4850989 -0.1758073 -0.44713324 0.68275714
17.525999 -7.6490002 -0.294 0.48461813 -0.17161393 -0.43950465 0.67636561
17.421 -7.5380001 -0.28999999 0.48621583 -0.17787343 -0.42736116 0.67132878
17.454 -7.4879999 -0.29100001 0.48538589 -0.15983272 -0.42622748 0.66544408
17.457001 -7.2950001 -0.289 0.48471442 -0.15503702 -0.40190777 0.64847082
19.596001 -8.0769997 -0.34799999 0.4467527 -0.35841608 -0.53562093 0.784181
17.958 -7.3390002 -0.301 -0.073399916 0.23863089 -0.45620692 0.52005482
19.559 -7.9190001 -0.34599999 0.45727271 -0.39881477 -0.47308862 0.76939219
19.614 -7.869 -0.34599999 0.45604956 -0.3700276 -0.44730377 0.73822916
19.614 -7.7979999 -0.34599999 0.46448299 -0.34654671 -0.44594869 0.73123825
19.612 -7.7259998 -0.345 0.46647236 -0.34763271 -0.41155592 0.71261716
19.613001 -7.691 -0.345 0.46866286 -0.32570592 -0.39548603 0.69436187
19.794001 -7.6900001 -0.34900001 0.45513418 -0.36585894 -0.33011973 0.67080468
19.625 -7.4829998 -0.34299999 0.4576824 -0.29724595 -0.30776632 0.62653685
19.613001 -7.408 -0.34200001 0.45368809 -0.29419851 -0.29501939 0.61597246
19.625 -7.342 -0.34200001 0.42998838 -0.35668933 -0.24934375 0.61179215
20.222 -7.4920001 -0.35800001 0.04032512 0.23111752 -0.45898843 0.51547241
20.688 -7.6269999 -0.37 0.12550505 0.20423251 -0.43587714 0.49744478
20.559 -7.507 -0.366 0.094409063 0.22048682 -0.45344761 0.51297396
22.415001 -7.9429998 -0.41499999 0.49130064 -0.29149133 -0.39029124 0.69186038
22.448999 -7.8759999 -0.41600001 0.46050107 -0.4559505 -0.37322652 0.74783027
22.385 -7.7750001 -0.41299999 0.39767742 -0.56953466 -0.47932017 0.8439579
22.433001 -7.7519999 -0.414 0.39925209 -0.56767082 -0.47928923 0.8434279
22.482 -7.6900001 -0.41499999 0.38825369 -0.57063943 -0.47386685 0.8372097
22.455 -7.6020002 -0.41299999 0.36846831 -0.58854342 -0.46424246 0.83526844
22.586 -7.5669999 -0.41600001 -0.32862926 0.12367827 -0.38035268 0.51765013
17.476999 -7.7670002 -0.40799999 0.48725277 -0.19511849 -0.44197914 0.68617201
17.504999 -7.7129998 -0.40799999 0.48978943 -0.22015034 -0.44947764 0.70027852
17.504999 -7.6479998 -0.40700001 0.48780441 -0.19343971 -0.44879833 0.69050127
17.525999 -7.6240001 -0.40700001 0.48779064 -0.19252169 -0.44620505 0.68855155
17.447001 -7.5250001 -0.40400001 0.48905435 -0.18278332 -0.43716389 0.68095243
17.422001 -7.3200002 -0.40000001 0.48559207 -0.15081346 -0.42337185 0.66165555
17.419001 -7.2540002 -0.40000001 0.49055615 -0.18921016 -0.41556144 0.67017698
19.556 -8.0749998 -0.47299999 0.41677782 -0.45304108 -0.57217497 0.84043688
19.365 -7.961 -0.46599999 -0.29415634 -0.10478082 -0.025744945 0.31332055
19.409 -7.9070001 -0.46599999 -0.32701913 -0.13349347 -0.040133119 0.35548934
19.556 -7.8959999 -0.47099999 0.44313765 -0.40331045 -0.53713048 0.80469835
19.570999 -7.8309999 -0.47 0.44974631 -0.36830467 -0.52924496 0.78614265
19.580999 -7.763 -0.47 0.45654947 -0.38703263 -0.47720036 0.76547492
19.583 -7.6929998 -0.46900001 0.45585799 -0.3804315 -0.49587411 0.77357984
19.583 -7.6220002 -0.46799999 0.47018495 -0.32270622 -0.42891476 0.71356928
19.576 -7.5840001 -0.46799999 0.47077143 -0.31613165 -0.40722257 0.69813693
19.580999 -7.5149999 -0.46700001 0.47178861 -0.30387485 -0.4100152 0.69500852
19.594999 -7.4499998 -0.46700001 0.36535656 0.047212094 -0.37388858 0.52488768
19.804001 -7.4590001 -0.47299999 0.42568144 -0.25471187 -0.21707268 0.54148257
19.958 -7.4450002 -0.477 0.046722144 0.23243621 -0.37962559 0.44757697
20.311001 -7.5050001 -0.48899999 0.045903288 0.23049 -0.45536479 0.5124352
20.783001 -7.6059999 -0.50400001 0.078504384 0.21955761 -0.39037377 0.45470887
22.333 -7.7399998 -0.55199999 -0.22766773 0.087255388 -0.14387175 0.28309923
22.434999 -7.697 -0.55500001 -0.26958036 0.11612427 -0.23568927 0.37644103
22.438 -7.658 -0.55400002 -0.16556506 0.14413115 -0.18467563 0.28686351
22.437 -7.579 -0.55400002 -0.13921361 0.17092976 -0.21827622 0.31022882
22.671 -7.579 -0.56099999 -0.15120125 0.20070481 -0.28977424 0.38355359
17.509001 -7.7649999 -0.53399998 0.48900858 -0.21049204 -0.44582528 0.69440371
17.518 -7.704 -0.53399998 0.48979437 -0.2066943 -0.4404273 0.69036025
17.539 -7.6469998 -0.53399998 0.49107024 -0.2049537 -0.40937167 0.67137259
17.556 -7.5890002 -0.53299999 0.48651406 -0.1952789 -0.36726096 0.64008623
17.457001 -7.5139999 -0.52899998 0.48766163 -0.17717355 -0.45804611 0.69210589
17.445999 -7.3150001 -0.52499998 0.49108052 -0.19897094 -0.41757789 0.67462641
17.452 -7.2529998 -0.52499998 0.48668763 -0.30673236 -0.41426003 0.70891535
19.160999 -7.8899999 -0.59500003 -0.14827484 -0.19563533 0.0716829 0.25572848
18.212 -7.3340001 -0.55299997 -0.092313051 0.23717877 -0.53648043 0.59379011
18.275999 -7.2930002 -0.55500001 -0.010234902 0.1993652 -0.65193629 0.68181539
18.399 -7.2750001 -0.55900002 -0.03881542 0.1940252 -0.66265601 0.69156736
18.52 -7.256 -0.56300002 -0.0447409 0.17916498 -0.6846621 0.7091291
18.694 -7.256 -0.56900001 -0.027448293 0.19653091 -0.6605168 0.68968123
18.889999 -7.2639999 -0.57599998 0.0066961795 -0.57042116 -0.03643474 0.57162279
19.062 -7.2950001 -0.583 -0.014626875 0.1911802 -0.64296365 0.67094415
19.261 -7.302 -0.58999997 0.025382457 0.2188274 -0.54289913 0.58589178
19.66 -7.3119998 -0.60500002 0.041629709 0.23519638 -0.42511174 0.48761702
20.409 -7.5159998 -0.634 0.06722793 0.22571543 -0.42729139 0.48789856
20.790001 -7.5819998 -0.64899999 0.022280319 0.22462428 -0.36942634 0.4329299
20.975 -7.5749998 -0.65600002 0.024593644 0.20783734 -0.2780627 0.34802309
21.068001 -7.5710001 -0.65899998 0.01396599 0.20793486 -0.27644747 0.34620103
21.229 -7.553 -0.66500002 0.038930494 0.19821087 -0.23930539 0.31316161
21.434 -7.5500002 -0.67199999 0.019527316 0.19062293 -0.21633255 0.28899512
21.652 -7.5500002 -0.68000001 0.0079491735 0.19800121 -0.23517025 0.30752677
21.865999 -7.5479999 -0.68800002 0.0069787707 0.20328286 -0.25057083 0.32273576
22.087 -7.546 -0.69599998 -0.038387716 0.21805161 -0.28682202 0.36233547
22.316999 -7.546 -0.704 -0.088785782 0.21303838 -0.28228641 0.3646284
22.52 -7.5749998 -0.71200001 -0.1240616 0.20405883 -0.27493152 0.36416841
17.421 -7.7210002 -0.64399999 0.48363835 -0.17342091 -0.44439179 0.67931211
17.462999 -7.6739998 -0.64499998 0.48690483 -0.18493304 -0.4391045 0.68124098
17.487 -7.619 -0.64499998 0.47165385 -0.13901836 -0.33899534 0.59724474
17.490999 -7.5560002 -0.64399999 0.46141672 -0.12534997 -0.30804029 0.56877661
17.476 -7.4840002 -0.64200002 0.47804728 -0.16356903 -0.34250593 0.61040509
17.507999 -7.4650002 -0.64300001 0.48052824 -0.20276539 -0.32780376 0.61601663
17.487 -7.3909998 -0.64099997 0.4851605 -0.19240502 -0.37264761 0.64130074
17.461 -7.316 -0.63800001 0.061646633 0.22307287 -0.2627371 0.35013226
17.454 -7.2480001 -0.63700002 0.066872478 0.22951877 -0.28616333 0.372881
17.582001 -7.237 -0.64200002 0.039494522 0.2458424 -0.33588117 0.41810822
17.745001 -7.2389998 -0.64899999 -0.054749079 0.23401222 -0.56758749 0.61637223
18.422001 -7.415 -0.68000001 -0.039832015 0.19912328 -0.6525799 0.6834451
18.599001 -7.4190001 -0.68699998 0.010343283 0.21465704 -0.58888978 0.62687784
18.773001 -7.4200001 -0.69400001 0.00097169913 0.22886673 -0.51935881 0.56755131
18.943001 -7.4190001 -0.70099998 -0.052727461 0.23946714 -0.44921005 0.51177573
19.129999 -7.4229999 -0.70899999 -0.047843073 0.23697546 -0.46718565 0.52603114
19.302 -7.421 -0.71600002 0.0012331828 0.23040715 -0.4895443 0.54105693
19.483999 -7.421 -0.72399998 0.035456084 0.2266877 -0.33252656 0.40400293
19.658001 -7.4520001 -0.73100001 -0.03074757 0.23667568 -0.35991028 0.43185204
19.858999 -7.4569998 -0.74000001 0.03860388 0.23685682 -0.42220789 0.48564485
20.125999 -7.4850001 -0.75099999 0.069800124 0.23284474 -0.44081077 0.50339139
20.475 -7.5430002 -0.76700002 0.036064744 0.22954348 -0.43896273 0.49666804
20.655001 -7.5349998 -0.77399999 0.013394099 0.23511752 -0.39775631 0.46224424
20.874001 -7.5409999 -0.78399998 -0.010613373 0.2263743 -0.37784392 0.44059503
21.066 -7.5359998 -0.792 0.0015951744 0.22310022 -0.34064114 0.40720099
21.282 -7.5760002 -0.801 0.00048985705 0.22497344 -0.31918955 0.39050642
21.497 -7.5770001 -0.81 -0.0018348955 0.22399414 -0.32537436 0.39502558
21.712999 -7.5770001 -0.81900001 0.014404285 0.22728157 -0.34709093 0.41513431
21.943001 -7.5799999 -0.829 -0.00086905435 0.23029342 -0.35993329 0.42730293
22.163 -7.5780001 -0.838 -0.071391225 0.22535223 -0.307502 0.38786313
22.370001 -7.5710001 -0.847 -0.12521106 0.19650963 -0.25239047 0.34350371
22.561001 -7.5570002 -0.85500002 -0.11698819 0.20202976 -0.26410669 0.35249767
22.603001 -7.5310001 -0.85600001 -0.13356012 0.20240027 -0.2735095 0.36552924
22.657 -7.4699998 -0.85699999 -0.10855947 0.20994362 -0.27838624 0.36518541
22.716 -7.4109998 -0.85900003 -0.14550547 0.18675697 -0.2341911 0.33300975
17.933001 -7.3769999 -0.76999998 0.029251846 0.21968061 -0.57487428 0.61611336
18.096001 -7.3779998 -0.778 0.014611594 0.21039432 -0.60312319 0.63893414
18.261999 -7.3779998 -0.78600001 0.021357376 0.19832817 -0.64770597 0.67772651
18.426001 -7.3769999 -0.79299998 -0.044190697 0.21252756 -0.62283862 0.65958226
18.594 -7.4099998 -0.80199999 0.022280384 0.22771272 -0.53876221 0.58533257
18.757999 -7.4070001 -0.80900002 -0.043830797 0.2334345 -0.55360919 0.60240847
18.938 -7.4089999 -0.81800002 -0.036873277 0.24051741 -0.42318866 0.48815665
19.134001 -7.4169998 -0.82700002 -0.016959781 0.23073196 -0.52493262 0.57365417
19.299 -7.4109998 -0.83499998 -0.0045705643 0.22986594 -0.49817443 0.54866838
19.489 -7.4130001 -0.84299999 0.0044995081 0.23701325 -0.46557343 0.52245015
19.684 -7.4159999 -0.85299999 -0.010789703 0.23725 -0.48928055 0.54387444
19.860001 -7.447 -0.86199999 0.046051271 0.24196199 -0.45307869 0.51570016
20.222 -7.5100002 -0.88 0.070554584 0.21847138 -0.30944449 0.38530973
20.482 -7.533 -0.89200002 0.048975222 0.21593863 -0.31032392 0.3812204
20.68 -7.5320001 -0.90200001 0.03167234 0.2276707 -0.34548596 0.41496703
20.881001 -7.5300002 -0.91100001 0.0038690055 0.23664084 -0.40406463 0.46827567
21.091999 -7.5320001 -0.921 0.0094069568 0.2429958 -0.41458958 0.48064536
21.313999 -7.5349998 -0.93199998 0.0039904551 0.24536601 -0.42819452 0.49352908
21.461 -7.5489998 -0.93900001 0.0070616696 0.2380513 -0.42796808 0.48977032
21.799999 -7.5910001 -0.95599997 0.0057352716 0.23416877 -0.42995527 0.48962173
22.034 -7.5949998 -0.96700001 -0.057727985 0.23161754 -0.36277404 0.43426284
22.277 -7.5999999 -0.97799999 -0.10926045 0.20799059 -0.26845834 0.35674614
22.414 -7.5679998 -0.98400003 -0.16880806 0.14988872 -0.18161364 0.28973487
22.551001 -7.5359998 -0.99000001 -0.15718231 0.15109438 -0.17211357 0.27777484
17.615 -7.349 -0.87599999 -0.0049645416 0.24657448 -0.35637003 0.43338576
17.688 -7.3150001 -0.87900001 -0.027402783 0.18102041 -0.18377134 0.25940549
17.881001 -7.329 -0.88999999 0.015648652 0.21274984 -0.61379439 0.64980835
18.545 -7.5339999 -0.92900002 -0.054612398 0.23576728 -0.52367288 0.57688993
18.628 -7.5 -0.93300003 -0.064523071 0.23663282 -0.50559115 0.56194371
18.635 -7.4349999 -0.93099999 -0.064523071 0.23663282 -0.50559115 0.56194371
18.712 -7.3979998 -0.935 -0.076274544 0.22896528 -0.55595422 0.60607588
18.875999 -7.428 -0.94400001 -0.071457803 0.24098274 -0.46901938 0.53212601
19.054001 -7.4289999 -0.95300001 -0.016512185 0.23809803 -0.47546566 0.5320065
19.240999 -7.4330001 -0.963 -0.016959794 0.23255962 -0.480544 0.53412932
19.426001 -7.4349999 -0.97299999 -0.00909058 0.23829195 -0.4426955 0.50283694
19.614 -7.4359999 -0.98299998 -0.0060985684 0.24079886 -0.44056502 0.50211436
19.799 -7.4359999 -0.99299997 0.0011414047 0.24612343 -0.4318575 0.49707037
20.017 -7.4460001 -1.005 0.002232735 0.23367244 -0.32121843 0.39722675
20.403 -7.5539999 -1.027 0.092477717 0.20446584 -0.27911383 0.35813814
20.584 -7.5479999 -1.0369999 0.012896715 0.2076245 -0.2591536 0.33231738
20.797001 -7.552 -1.048 0.0052063027 0.2244319 -0.31368053 0.38573602
21.014 -7.5570002 -1.0599999 0.014765276 0.24071389 -0.44273403 0.50415736
21.232 -7.5599999 -1.071 0.020610891 0.24373794 -0.42917314 0.4939864
21.438 -7.5580001 -1.082 0.011757577 0.24658442 -0.41855356 0.48593128
21.656 -7.5580001 -1.094 0.010605457 0.2395837 -0.40585926 0.47141761
21.9 -7.605 -1.108 -0.03920617 0.22301766 -0.32186058 0.39353302
22.110001 -7.6009998 -1.119 -0.15174177 0.17959458 -0.2247003 0.325223
22.184999 -7.5489998 -1.122 -0.17887829 0.14148897 -0.17302209 0.28627473
17.455 -7.1170001 -0.963 0.15057687 0.19522552 -0.24112301 0.34485751
18.603001 -7.5159998 -1.038 -0.10217747 0.23181927 -0.52449119 0.58247012
18.650999 -7.467 -1.04 -0.091024891 0.23250115 -0.51489007 0.57223606
18.687 -7.4130001 -1.041 -0.086080037 0.23389265 -0.51365161 0.57092339
18.856001 -7.4109998 -1.051 -0.083237574 0.2440626 -0.47609127 0.54144067
19.035 -7.4130001 -1.061 -0.02418725 0.24025446 -0.4452942 0.50655121
19.212999 -7.4120002 -1.071 -0.012400297 0.23864037 -0.44316417 0.50348532
19.385 -7.4439998 -1.082 -0.010100242 0.23494795 -0.45177606 0.50931734
19.589001 -7.4510002 -1.094 -0.0015436299 0.24209017 -0.44523349 0.50679672
19.766001 -7.447 -1.104 -0.0026905583 0.24571586 -0.43621346 0.50066531
19.950001 -7.4450002 -1.115 -0.019693125 0.24003968 -0.34481961 0.42060363
21.410999 -7.5689998 -1.202 -0.018812384 0.24554643 -0.47533533 0.53534162
21.604 -7.5609999 -1.2130001 0.0034540724 0.23905593 -0.39245379 0.45954287
21.829 -7.5630002 -1.226 -0.053174913 0.19962651 -0.24577284 0.3210648
21.957001 -7.5300002 -1.233 -0.088152245 0.18864802 -0.21754351 0.30113798
22.075001 -7.493 -1.239 -0.20384355 0.09792617 -0.13202825 0.26186481
22.256001 -7.3600001 -1.247 -0.26407653 0.032394469 -0.10039219 0.28436667
22.333 -7.3070002 -1.251 -0.25251073 0.012360901 -0.077684641 0.2644794
22.384001 -7.2459998 -1.253 -0.24373357 0.01956366 -0.073042154 0.25519395
22.437 -7.1849999 -1.255 -0.28737539 0.065271825 -0.14475527 0.32832775
22.427 -7.105 -1.253 -0.2995491 0.090275601 -0.17721033 0.35955924
