# .PCD v0.7 - Point Cloud Data file format
VERSION 0.7
FIELDS x y z normal_x normal_y normal_z curvature
SIZE 4 4 4 4 4 4 4
TYPE F F F F F F F
COUNT 1 1 1 1 1 1 1
WIDTH 102
HEIGHT 1
VIEWPOINT 0 0 0 1 0 0 0
POINTS 102
DATA ascii
-24.497999 -7.0009999 -0.93000001 -0.17367764 0.31670466 0.14888778 0.39068317
-24.441999 -7.0669999 -0.92799997 -0.17421453 0.31629851 0.14886642 0.39058501
-24.417 -7.1020002 -0.92699999 -0.17421453 0.31629851 0.14886642 0.39058501
-24.375 -7.1729999 -0.92699999 -0.17987306 0.3129673 0.14860049 0.39036515
-24.355 -7.25 -0.92699999 -0.18554723 0.31001207 0.14825478 0.39053136
-24.323999 -7.3239999 -0.926 0.20884468 0.4168644 -0.020752013 0.46671477
-24.301001 -7.401 -0.926 0.1394939 0.31497946 0.051384747 0.3482973
-24.271999 -7.4749999 -0.926 0.090274855 0.26191324 0.077847451 0.28776434
-24.218 -7.5419998 -0.92500001 0.10025473 0.23748873 0.068742782 0.26679108
-24.216999 -7.625 -0.926 0.12056224 0.21349061 0.051488549 0.25052857
-24.329 -7.7020001 -0.93099999 0.15834153 0.23024201 0.026940376 0.28072977
-24.070999 -6.737 -1.052 0.37324592 0.18388443 -0.60954255 0.73801637
-24.021999 -6.8049998 -1.05 0.2947109 0.55245984 -0.37659621 0.7306785
-23.987 -6.8759999 -1.049 0.25946337 0.59626949 -0.2836481 0.70944685
-23.959999 -6.9499998 -1.049 0.30627739 0.51661992 -0.25360188 0.65193242
-23.941999 -7.026 -1.049 0.31950793 0.43668285 -0.19960678 0.57673222
-23.916 -7.1009998 -1.049 0.31309313 0.39513135 -0.16112264 0.5292604
-23.899 -7.1360002 -1.049 0.30891979 0.33637398 -0.13665763 0.47671187
-23.895 -7.217 -1.05 0.30314609 0.26271501 -0.1270915 0.42079565
-23.882 -7.2950001 -1.05 0.30626979 0.22780049 -0.14069647 0.40680432
-23.757999 -7.0710001 -1.199 0.28607792 0.36554161 -0.13322011 0.48291701
-23.76 -7.1529999 -1.2 0.3112517 0.3134838 -0.13868599 0.46301568
-23.969 -7.257 -1.2130001 0.25933069 0.22012433 -0.071914256 0.34767628
-23.954 -7.335 -1.214 0.29270199 0.18292004 -0.13326004 0.36998978
-24.219 -7.4990001 -1.2309999 0.22454496 0.17756166 -0.050872952 0.29075184
-24.205999 -7.5780001 -1.2309999 0.21758343 0.065209195 -0.12040371 0.25708333
-23.884001 -7.5599999 -1.214 0.25222373 0.086982816 -0.13385746 0.29849729
-23.934 -7.6589999 -1.2180001 0.2339443 -0.00014716387 -0.21357815 0.31677371
-24.075001 -7.7870002 -1.228 -0.33526284 0.76652908 -0.45444548 0.952097
-24.459999 -7.954 -1.251 -0.33171374 0.7730397 -0.46951342 0.96336246
-24.070999 -6.9000001 -1.346 0.27648702 0.54314888 -0.22296391 0.64897507
-24.030001 -6.9699998 -1.345 0.29955605 0.43265146 -0.16625074 0.55186993
-23.815001 -6.9889998 -1.3329999 0.31725806 0.37523872 -0.19704728 0.52941895
-23.781 -7.0599999 -1.332 0.33326638 0.32866222 -0.21908921 0.51680309
-23.778 -7.1409998 -1.3329999 0.34829789 0.31150097 -0.22509094 0.51866192
-23.784 -7.224 -1.335 0.34938133 0.23415434 -0.24425219 0.48636889
-23.778 -7.3039999 -1.336 0.34141782 0.16920733 -0.26649001 0.46498835
-23.794001 -7.3499999 -1.3380001 0.34242186 0.1571833 -0.28770119 0.47405833
-23.829 -7.4429998 -1.342 0.33503771 0.12314877 -0.31442374 0.47568706
-23.863001 -7.5359998 -1.345 0.29776418 0.055297166 -0.29369658 0.42187554
-23.927 -7.6389999 -1.351 0.24915397 -0.016711414 -0.3085534 0.39694104
-24.039 -7.7579999 -1.36 -0.39125592 0.74699545 -0.39590645 0.93157142
-24.521 -8 -1.393 -0.42075646 0.74454153 -0.35325411 0.92529267
-24.806999 -8.1789999 -1.413 -0.42258203 0.7421999 -0.31872937 0.91160554
-23.691999 -6.8499999 -1.495 0.35667431 0.27598652 -0.29377323 0.53822654
-23.683001 -6.888 -1.495 0.35638952 0.30079612 -0.29423052 0.55141944
-23.723 -6.98 -1.499 0.33545029 0.40039372 -0.26626748 0.58629376
-23.620001 -7.0310001 -1.493 0.36146307 0.21518055 -0.41389596 0.59014243
-23.711 -7.1389999 -1.502 0.36110336 0.20893404 -0.39008859 0.57115513
-23.719 -7.3039999 -1.505 0.34870949 0.15823297 -0.32812881 0.50428611
-24.124001 -7.553 -1.5369999 -0.44742531 0.710814 -0.35399127 0.91145808
-23.849001 -7.5489998 -1.5190001 0.30285272 0.058160812 -0.43539405 0.53354514
-23.903 -7.6490002 -1.525 0.26810879 0.015951306 -0.47350001 0.54437029
-24.134001 -7.8060002 -1.543 -0.4068408 0.73845232 -0.33917961 0.9087761
-24.621 -8.0489998 -1.58 0.16044131 -0.060623527 -0.28316692 0.3310591
-23.83 -6.9099998 -1.627 0.30471343 0.28715834 -0.15102796 0.4451063
-23.805 -6.9829998 -1.627 0.31465822 0.2825633 -0.17005022 0.45581672
-23.801001 -7.0229998 -1.627 0.33790332 0.20656545 -0.24281535 0.46455055
-23.785 -7.099 -1.628 0.34059811 0.17965151 -0.26975048 0.47015643
-23.795 -7.184 -1.63 0.35501909 0.19230083 -0.4486548 0.60358042
-23.827 -7.276 -1.6339999 0.34943751 0.18460843 -0.4707337 0.61463571
-23.829 -7.3579998 -1.636 0.32145312 0.12105465 -0.50289118 0.60900402
-23.892 -7.46 -1.643 0.28733024 0.077816799 -0.53647625 0.61353147
-23.938 -7.5570002 -1.648 0.27647787 0.042246014 -0.50737804 0.57935929
-24.025 -7.6259999 -1.656 -0.48585138 0.61770344 -0.21988684 0.81606328
-24.108999 -7.7360001 -1.664 -0.47655594 0.65819252 -0.21881214 0.84154719
-24.358 -7.901 -1.686 -0.39174896 0.75080085 -0.25526673 0.88449436
-24.315001 -7.6869998 -1.845 -0.50856608 0.64409757 -0.27526906 0.86560625
-24.165001 -7.723 -1.834 -0.48510373 0.67265248 -0.29490829 0.88020337
-24.135 -7.7969999 -1.834 -0.48510373 0.67265248 -0.29490829 0.88020337
-24.386 -7.9200001 -1.8559999 -0.3939321 0.73874813 -0.21539368 0.86448002
-24.941 -8.1870003 -1.905 -0.1936364 0.31879872 0.15964952 0.40572855
-24.839001 -8.2399998 -1.899 -0.20170067 0.29231346 0.1463972 0.38413858
-24.698 -8.2790003 -1.8890001 0.017619029 0.66159678 -0.67158633 0.94289392
-24.636 -8.3450003 -1.886 -0.19782038 0.29968062 0.1470879 0.38804153
-24.514999 -8.3900003 -1.878 -0.19635858 0.30281901 0.14732438 0.38982114
-24.382999 -8.4309998 -1.869 -0.19448674 0.30687559 0.14759296 0.39214972
-24.27 -8.434 -1.86 -0.19600655 0.30185404 0.14731812 0.38889208
-24.155001 -8.4799995 -1.853 -0.18141407 0.29694659 0.1366452 0.37384522
-24.077999 -8.5369997 -1.849 -0.18066275 0.29808041 0.13674232 0.3744188
-23.643 -6.8829999 -1.916 0.1466928 0.55779314 -0.083558887 0.58278131
-23.572001 -6.9429998 -1.911 0.11416335 0.60141242 -0.098319769 0.61999756
-23.514 -7.006 -1.908 -0.17628703 0.26560125 0.10655379 0.3361173
-23.445999 -7.066 -1.904 -0.17652263 0.26487443 0.10651061 0.33565339
-23.355 -7.119 -1.898 -0.1761096 0.26541686 0.10675958 0.33594391
-23.257999 -7.1290002 -1.89 -0.17478791 0.26145202 0.1069071 0.33217028
-23.163 -7.1789999 -1.8839999 -0.1658071 0.26897275 0.10213274 0.33206841
-23.084999 -7.2350001 -1.8789999 -0.15408666 0.33597273 0.16164181 0.40342095
-22.992001 -7.2849998 -1.872 -0.1545299 0.33549517 0.16158691 0.40317097
-22.917999 -7.3410001 -1.868 -0.14851299 0.34685263 0.16227448 0.41072601
-22.827 -7.3909998 -1.862 0.052817866 -0.49911687 0.45370042 0.67657334
-22.735001 -7.4400001 -1.855 0.039324809 -0.48854071 0.35578269 0.60563999
-22.659 -7.454 -1.85 0.03780641 -0.48497495 0.34363911 0.59558195
-22.575001 -7.5050001 -1.844 0.034858264 -0.49125665 0.34604797 0.60191143
-22.476 -7.5510001 -1.837 0.04401233 -0.46766388 0.32123804 0.5690698
-22.379999 -7.5970001 -1.831 0.04341238 -0.4657191 0.30544314 0.55863619
-22.299999 -7.6479998 -1.826 0.04123491 -0.4703795 0.30513304 0.56219512
-22.225 -7.6999998 -1.821 0.04931679 -0.45375389 0.29448894 0.54318362
-22.143999 -7.75 -1.816 0.047729965 -0.45066965 0.28721935 0.53654099
-22.066 -7.7620001 -1.8099999 0.054046366 -0.420358 0.2269696 0.48076716
-21.995001 -7.8140001 -1.806 0.054134361 -0.42044219 0.22697458 0.48085302
-21.940001 -7.8720002 -1.803 0.052460399 -0.43055657 0.24291897 0.49713245
