# .PCD v0.7 - Point Cloud Data file format
VERSION 0.7
FIELDS x y z normal_x normal_y normal_z curvature
SIZE 4 4 4 4 4 4 4
TYPE F F F F F F F
COUNT 1 1 1 1 1 1 1
WIDTH 234
HEIGHT 1
VIEWPOINT 0 0 0 1 0 0 0
POINTS 234
DATA ascii
22.209999 -2.0079999 -0.26300001 -0.033611424 0.42921498 -0.2733793 0.50999165
21.252001 -2.039 -0.352 -0.14025895 0.20231302 -0.073495507 0.25691384
21.285999 -1.975 -0.35299999 -0.13579838 0.23447099 -0.089818567 0.28545615
21.513 -1.927 -0.359 -0.035543814 0.25995508 -0.085374594 0.27591452
22.183001 -1.952 -0.37599999 -0.033611424 0.42921498 -0.2733793 0.50999165
21.028 -3.1719999 -0.47600001 0.2426708 0.22691087 -0.87629741 0.93716317
20.974001 -3.096 -0.47400001 0.26933634 0.19710766 -0.87591147 0.93734437
20.936001 -3.0569999 -0.47299999 0.28984106 0.17154032 -0.87296927 0.93568653
20.889999 -2.983 -0.47099999 0.35342237 0.12923411 -0.83548069 0.91631699
20.837999 -2.9089999 -0.46900001 0.36951655 0.11740196 -0.82442641 0.91104591
20.819 -2.8399999 -0.46799999 0.38265991 0.07976155 -0.8217113 0.90994501
20.794001 -2.77 -0.46700001 0.40138423 0.049194414 -0.80716169 0.90279531
20.777 -2.701 -0.46599999 0.412586 0.021437749 -0.79719663 0.89789158
20.771999 -2.6340001 -0.46599999 0.4203158 -0.0083710775 -0.78833437 0.89342403
20.794001 -2.471 -0.46599999 0.41627485 -0.05970563 -0.78910971 0.89417207
20.801001 -2.4059999 -0.46599999 0.41281274 -0.076209992 -0.7907185 0.89524192
20.844 -2.3440001 -0.46700001 0.40884864 -0.093600631 -0.79178149 0.89601129
20.864 -2.28 -0.46700001 -0.370478 0.086262681 -0.19165093 0.42594048
20.853001 -2.2460001 -0.46700001 -0.35757527 0.11083799 -0.18500698 0.41757959
20.893999 -2.184 -0.46799999 -0.30935445 0.12351082 -0.14033943 0.36145577
20.913 -2.119 -0.46799999 -0.27007329 0.16085196 -0.1253123 0.3384023
20.941 -2.056 -0.46900001 -0.2521112 0.18932839 -0.12728146 0.34000862
20.983 -1.994 -0.47 -0.2291601 0.21969053 -0.13108298 0.34345454
21.031 -1.932 -0.472 -0.19660126 0.25348198 -0.13539469 0.34819087
21.216 -1.882 -0.477 -0.10551581 0.34974009 -0.1800819 0.40728515
21.778999 -1.898 -0.495 0.085680738 0.36521545 -0.19227421 0.42153636
22.336 -1.876 -0.51300001 -0.050740987 0.43324164 -0.28361011 0.52029574
20.723 -3.171 -0.60399997 0.37810114 0.18115756 -0.7839489 0.88901877
20.715 -3.1029999 -0.60299999 0.40686014 0.13163359 -0.77332938 0.88368595
20.698999 -3.0339999 -0.602 0.42033136 0.10474627 -0.76522171 0.87932616
20.691999 -3 -0.602 0.42108628 0.10420647 -0.76428425 0.87880778
20.691 -2.934 -0.602 0.44245124 0.065697543 -0.74293447 0.86719716
20.684 -2.8670001 -0.60100001 0.4525027 0.063173816 -0.72670197 0.85839701
20.684999 -2.8010001 -0.60100001 0.47001588 0.04831785 -0.69618201 0.84137917
20.684 -2.734 -0.60000002 0.47277185 0.018425416 -0.6960597 0.84163642
20.684999 -2.668 -0.60000002 0.46975866 0.008381024 -0.70444185 0.84674776
20.677 -2.6010001 -0.59899998 0.47456941 -0.0095874332 -0.69232953 0.83942139
20.669001 -2.5669999 -0.59899998 0.47694075 -0.026399437 -0.68652785 0.83635515
20.695 -2.5050001 -0.60000002 0.47322011 -0.036888748 -0.69437718 0.84110504
20.684999 -2.437 -0.59899998 0.47146165 -0.064850718 -0.69244528 0.84021556
20.711 -2.375 -0.60000002 0.46735382 -0.086668372 -0.69379443 0.84100044
20.704 -2.3080001 -0.59899998 0.46666721 -0.093444787 -0.69476408 0.84214449
20.725 -2.244 -0.60000002 0.46240452 -0.10517053 -0.69970369 0.84525979
20.726 -2.1789999 -0.59899998 0.41545567 -0.11458379 -0.78084898 0.89188451
20.739 -2.1470001 -0.60000002 -0.36798844 0.090095252 -0.19482508 0.42601579
20.742001 -2.0810001 -0.60000002 -0.35627887 0.10728544 -0.18830451 0.41701725
20.761999 -2.0179999 -0.60000002 -0.34052092 0.17410548 -0.20370412 0.43331578
20.745001 -1.95 -0.59899998 -0.2983717 0.21763521 -0.18818218 0.41449162
21.011999 -1.908 -0.60900003 -0.2175594 0.27557093 -0.1677047 0.38909677
20.903999 -1.8329999 -0.60500002 -0.23016258 0.29286188 -0.19321108 0.41961104
21.208 -1.7920001 -0.61699998 -0.047723882 0.41794509 -0.26774669 0.49864212
21.886 -1.814 -0.64300001 0.093166672 0.37209702 -0.20558828 0.4352043
20.745001 -3.3080001 -0.73100001 0.42637283 0.21825336 -0.66441995 0.81907398
20.733999 -3.2390001 -0.73000002 0.38981402 0.21675022 -0.73983335 0.86388022
20.761999 -3.177 -0.73100001 0.41937959 0.17079559 -0.72708791 0.85656708
20.775 -3.112 -0.73100001 0.43472844 0.12682778 -0.72864223 0.85790068
20.690001 -3.033 -0.72600001 0.46194193 0.091071904 -0.69402421 0.83866203
20.684 -2.9660001 -0.72600001 0.47456571 0.060778245 -0.67697191 0.82897383
20.683001 -2.9319999 -0.72600001 0.47519562 0.061362267 -0.67576677 0.82839417
20.656 -2.862 -0.72399998 0.48311594 0.028337583 -0.66518211 0.82260031
20.659 -2.7969999 -0.72399998 0.48636433 0.032161847 -0.65828401 0.81909859
20.65 -2.7290001 -0.72299999 0.48929352 -0.003344411 -0.6545288 0.81720704
20.646 -2.6630001 -0.722 0.49263307 -0.0047094366 -0.6449998 0.81162447
20.657 -2.598 -0.722 0.49182269 -0.015320616 -0.64487052 0.81116104
20.659 -2.533 -0.722 0.49126431 -0.032539338 -0.64526463 0.8116439
20.657 -2.4990001 -0.722 0.49065414 -0.039575491 -0.64530164 0.81161684
20.655001 -2.4330001 -0.72100002 0.48773271 -0.064028837 -0.6481328 0.8136701
20.667999 -2.369 -0.722 0.48259354 -0.079629116 -0.65800273 0.81988102
20.674 -2.3039999 -0.722 0.47886708 -0.051876966 -0.67944151 0.83285391
20.687 -2.24 -0.722 0.47766593 -0.04939092 -0.68388247 0.83564317
20.701 -2.1760001 -0.722 0.4724184 -0.059110019 -0.69513476 0.842547
20.705999 -2.1099999 -0.722 0.44254723 -0.14660929 -0.72360218 0.86078012
20.737 -2.0810001 -0.72299999 0.43176067 -0.17439851 -0.72628176 0.86273825
20.76 -2.017 -0.72399998 -0.38162497 0.17384854 -0.26228967 0.49462795
20.768 -1.952 -0.72399998 -0.35627401 0.21344328 -0.25676551 0.48828039
20.784 -1.888 -0.72500002 -0.29663426 0.29475436 -0.26496023 0.49505144
20.947001 -1.836 -0.73199999 -0.24814418 0.34168482 -0.27174094 0.50216252
20.961 -1.771 -0.73199999 -0.18772715 0.38309962 -0.28296703 0.5119347
21.412001 -1.742 -0.75199997 0.10761958 0.42578164 -0.2996673 0.5316695
22.110001 -1.765 -0.78299999 0.011304226 0.45123285 -0.33356225 0.56125098
20.756001 -3.3 -0.852 0.44991067 0.20682566 -0.60895503 0.78487116
20.514999 -3.197 -0.83899999 0.45610818 0.19221447 -0.62362587 0.79617232
20.523001 -3.132 -0.83899999 0.47243458 0.15898441 -0.612248 0.78950495
20.466 -3.0569999 -0.83600003 0.48470107 0.11504149 -0.62138385 0.79642171
20.632999 -2.95 -0.84299999 0.50043637 0.054671559 -0.59009397 0.77565223
20.625999 -2.8829999 -0.84200001 0.5017426 0.03344816 -0.59521747 0.77919716
20.663 -2.855 -0.84399998 0.50322855 0.026290871 -0.59033948 0.77616423
20.620001 -2.783 -0.84100002 0.50624406 0.001054246 -0.58654398 0.77480191
20.597 -2.714 -0.83999997 0.50644875 -0.0058184997 -0.58769894 0.77583134
20.607 -2.6489999 -0.83999997 0.50601095 -0.0033825408 -0.58979899 0.77712375
20.610001 -2.5840001 -0.83899999 0.50532448 -0.0214289 -0.58849186 0.77597338
20.612 -2.5179999 -0.83899999 0.50455797 -0.036892872 -0.58841509 0.77599752
20.617001 -2.4530001 -0.83899999 0.50307918 -0.057391092 -0.58846319 0.77631909
20.615 -2.4200001 -0.83899999 0.50238168 -0.063669339 -0.58887333 0.77666783
20.611 -2.3540001 -0.838 0.50460011 -0.036720682 -0.59283644 0.7793746
20.643999 -2.2920001 -0.83899999 0.50394142 -0.040315412 -0.59644246 0.78187335
20.650999 -2.227 -0.83899999 0.50365019 -0.048207037 -0.59594798 0.78175539
20.674 -2.164 -0.83999997 0.50393182 -0.05166674 -0.59689486 0.78287941
20.705999 -2.102 -0.84200001 0.48690158 -0.13364559 -0.60974944 0.79166198
20.431 -2.0420001 -0.82800001 0.50236595 -0.039842982 -0.6125012 0.79316878
20.489 -1.983 -0.82999998 0.49610376 -0.09825021 -0.61244738 0.79426938
20.513 -1.92 -0.83099997 0.49494317 -0.11616051 -0.6003136 0.78666282
20.603001 -1.863 -0.83499998 -0.3626222 0.27390972 -0.35133073 0.57441682
20.938999 -1.826 -0.852 -0.28371498 0.34124079 -0.32043436 0.54737341
20.877001 -1.755 -0.84899998 -0.30285266 0.33998358 -0.35472691 0.57718259
21.346001 -1.726 -0.87199998 -0.0054394589 0.47718009 -0.46292809 0.66485548
20.738001 -3.3080001 -0.98400003 0.47572699 0.17188598 -0.54567569 0.74405837
20.673 -3.2309999 -0.98000002 0.49222627 0.11317699 -0.57199001 0.76306504
20.666 -3.197 -0.97899997 0.49462771 0.10657421 -0.56834686 0.76094204
20.636999 -3.1259999 -0.977 0.49820152 0.088518843 -0.56661069 0.75966311
20.641001 -3.0599999 -0.977 0.5003286 0.078052193 -0.56694156 0.76016027
20.638 -2.994 -0.97600001 0.50170523 0.066976205 -0.57198626 0.76378155
20.634001 -2.927 -0.97500002 0.50498587 0.047741022 -0.5670507 0.760813
20.635 -2.8610001 -0.97500002 0.50793248 0.02085422 -0.56233341 0.75805616
20.612 -2.825 -0.97299999 0.50934649 0.004880785 -0.55647695 0.75440323
20.607 -2.7579999 -0.97299999 0.50995439 0.003034371 -0.56261164 0.7593382
20.605 -2.6919999 -0.972 0.50962591 0.0044123726 -0.56619406 0.76178324
20.606001 -2.6259999 -0.972 0.50940818 -0.010230459 -0.56259173 0.75901967
20.608 -2.5610001 -0.97100002 0.50850284 -0.025228549 -0.56791967 0.76272172
20.620001 -2.4960001 -0.97100002 0.50759196 -0.039141346 -0.56871128 0.76329166
20.624001 -2.431 -0.97100002 0.50544733 -0.063635945 -0.5700326 0.76450229
20.622999 -2.365 -0.97100002 0.5046764 -0.070899047 -0.56971169 0.76439279
20.649 -2.336 -0.972 0.50637829 -0.060519066 -0.56581402 0.76172638
20.646 -2.27 -0.97100002 0.51087373 -0.054738671 -0.53884053 0.74453843
20.639 -2.2030001 -0.97100002 0.51107699 -0.054199569 -0.5383594 0.74429035
20.656 -2.1389999 -0.97100002 0.50889051 -0.078046225 -0.5355975 0.74291688
20.674 -2.076 -0.972 0.49796787 -0.14163364 -0.53761661 0.74636698
20.674999 -2.01 -0.972 0.49333224 -0.15951078 -0.53102052 0.74216115
20.690001 -1.979 -0.972 0.4668479 -0.22897345 -0.53599155 0.74676818
20.718 -1.916 -0.97299999 0.4265393 -0.29880494 -0.54415548 0.75321001
20.705999 -1.849 -0.972 -0.35643163 0.30606079 -0.41780761 0.62871289
20.787001 -1.791 -0.977 -0.32917422 0.33449659 -0.41488016 0.6263938
21.002001 -1.743 -0.98900002 -0.096121624 0.46573648 -0.4922286 0.68442589
21.598 -1.725 -1.022 0.0049099256 0.47922963 -0.50014234 0.6926958
20.677 -3.3210001 -1.0930001 0.48486325 0.14657478 -0.54681575 0.7453751
20.636 -3.2479999 -1.09 0.48176476 0.16563977 -0.51269406 0.72276485
20.613001 -3.178 -1.0880001 0.49540412 0.1162581 -0.54074311 0.74252558
20.629 -3.115 -1.0880001 0.50076425 0.085829988 -0.55164981 0.74996608
20.636999 -3.049 -1.0880001 0.50251859 0.075717494 -0.55409873 0.75185335
20.603001 -2.9779999 -1.085 0.50893682 0.050572451 -0.51474524 0.72562861
20.627001 -2.9489999 -1.086 0.50994974 0.038716659 -0.52316844 0.73160982
20.591 -2.878 -1.0829999 0.51132822 0.017182335 -0.52699411 0.73448932
20.584 -2.8110001 -1.082 0.51232111 0.011922478 -0.5359804 0.74154574
20.587 -2.7449999 -1.082 0.51122117 0.013486357 -0.54799408 0.74955082
20.575001 -2.678 -1.081 0.51213998 -0.001766013 -0.54509687 0.74794453
20.572001 -2.612 -1.08 0.51115716 -0.013392484 -0.54746193 0.74911648
20.587999 -2.5480001 -1.081 0.51030123 -0.025600091 -0.55077112 0.75127327
20.601999 -2.517 -1.081 0.51008433 -0.042749453 -0.54534 0.74793667
20.576 -2.4489999 -1.079 0.50891066 -0.05416657 -0.54883653 0.75043029
20.611 -2.3870001 -1.081 0.50801367 -0.066747129 -0.54533601 0.748281
20.601 -2.3199999 -1.08 0.50685263 -0.094751865 -0.52329826 0.73465538
20.618 -2.257 -1.08 0.51151294 -0.062901609 -0.48723167 0.70922267
20.613001 -2.191 -1.08 0.51246113 -0.058084227 -0.47438067 0.70073336
20.636999 -2.128 -1.081 0.50900906 -0.079157926 -0.46606231 0.69467276
20.631001 -2.0940001 -1.08 0.50906807 -0.084876552 -0.46390483 0.69394672
20.659 -2.0320001 -1.081 0.49872243 -0.13175227 -0.441984 0.67928827
20.65 -1.965 -1.08 0.47910184 -0.20372388 -0.47762668 0.70651907
20.67 -1.902 -1.081 0.44619355 -0.26581785 -0.44670984 0.68505293
20.677 -1.837 -1.081 0.42447805 -0.29982403 -0.44373685 0.68335825
20.725 -1.775 -1.084 0.37370202 -0.36673599 -0.51041365 0.73121172
20.877001 -1.755 -1.0930001 -0.17951706 0.43452236 -0.57307196 0.7412473
21.589001 -1.7460001 -1.137 0.0046259779 0.47922522 -0.50244522 0.69435543
20.731001 -3.3069999 -1.242 0.32006693 0.38000479 -0.57688516 0.76134288
20.645 -3.227 -1.2359999 0.47416028 0.18074183 -0.54270285 0.74298179
20.636999 -3.1589999 -1.234 0.5011012 0.083986059 -0.54966462 0.74852335
20.625 -3.0910001 -1.233 0.50315511 0.074606225 -0.5499056 0.74908435
20.622999 -3.0239999 -1.232 0.50496924 0.066780642 -0.54415083 0.74535477
20.611 -2.9560001 -1.23 0.50715172 0.055917706 -0.53627974 0.74022001
20.601999 -2.8889999 -1.229 0.51001376 0.030774716 -0.53396749 0.73904157
20.605 -2.8570001 -1.229 0.5108524 0.028804682 -0.52771342 0.73503828
20.598 -2.79 -1.228 0.51144165 0.022927081 -0.52530539 0.73351479
20.587999 -2.723 -1.227 0.51355493 0.0078594666 -0.51513672 0.72743815
20.584999 -2.6559999 -1.226 0.51298314 -0.0054136068 -0.52052736 0.73084182
20.584999 -2.5910001 -1.225 0.51301968 -0.018852994 -0.5189054 0.7299366
20.594999 -2.526 -1.226 0.51216269 -0.037542362 -0.51723558 0.72887081
20.587 -2.4920001 -1.225 0.51151448 -0.051391535 -0.50702673 0.72205561
20.607 -2.4289999 -1.226 0.50948483 -0.070379198 -0.48503777 0.70695806
20.613001 -2.3640001 -1.225 0.50227815 -0.11067741 -0.46384951 0.69259602
20.614 -2.299 -1.225 0.5039596 -0.096314818 -0.44355389 0.67822701
20.605 -2.2320001 -1.224 0.5056783 -0.089754343 -0.44941682 0.6824528
20.66 -2.1719999 -1.227 0.50352263 -0.098127224 -0.44597474 0.67974812
20.889 -2.1300001 -1.243 0.43103668 -0.23512372 -0.3443647 0.59971899
20.690001 -2.0769999 -1.229 0.4949019 -0.14015585 -0.44137752 0.67777997
20.643999 -2.007 -1.225 0.49054614 -0.1613005 -0.43940783 0.67803586
20.659 -1.943 -1.226 0.48421887 -0.173412 -0.42206469 0.66534072
20.686001 -1.88 -1.227 0.4776693 -0.18657017 -0.41325185 0.65859962
20.746 -1.8200001 -1.2309999 0.40963337 -0.31982321 -0.44068271 0.68138653
20.844999 -1.763 -1.237 -0.21011899 0.42647994 -0.49897179 0.68920821
21.282 -1.733 -1.267 -0.079934672 0.46637809 -0.56939608 0.74034446
20.995001 -3.3410001 -1.365 0.23783351 0.24176501 -0.13018152 0.3632662
21.027 -3.2780001 -1.367 -0.10312282 0.47986162 -0.55331475 0.73963416
21.385 -3.1960001 -1.392 -0.21599385 0.43955782 -0.50925475 0.70654428
21.117001 -1.911 -1.3609999 -0.12803647 0.46306267 -0.53117841 0.7162199
21.107 -1.8430001 -1.36 -0.06319961 0.47382799 -0.52839392 0.7125358
21.129 -1.778 -1.3609999 -0.011298962 0.46888345 -0.40491271 0.61962378
21.375 -1.7309999 -1.3789999 -0.17475398 0.33380538 -0.19373494 0.42367229
21.118 -3.309 -1.5140001 -0.14705402 0.46774513 -0.44783846 0.66405547
21.117001 -3.2750001 -1.513 -0.14706911 0.46603268 -0.44782004 0.66284132
21.122 -3.2079999 -1.513 -0.14706911 0.46603268 -0.44782004 0.66284132
21.150999 -1.897 -1.503 -0.23339704 0.24540879 -0.14832595 0.36972997
21.181 -1.8329999 -1.505 -0.22093782 0.21004382 -0.11723068 0.32661131
21.145 -1.762 -1.501 -0.14011882 0.31024048 -0.15518391 0.3741183
21.576 -1.7309999 -1.536 0.012412187 0.47825855 -0.48108962 0.67847806
20.584999 -3.4189999 -1.5930001 -0.36003089 0.19885007 -0.23734719 0.47486553
20.621 -3.358 -1.595 0.43756494 -0.16738354 -0.70731282 0.84839362
20.634001 -3.2939999 -1.595 0.46157753 -0.1202246 -0.68706471 0.83640039
20.610001 -3.223 -1.592 0.49761441 -0.018115399 -0.62057632 0.79565275
20.589001 -3.154 -1.59 0.50565886 -0.027321061 -0.57884049 0.76908624
20.58 -3.1199999 -1.5880001 0.50598282 -0.028084604 -0.57882005 0.76931143
20.563999 -3.0510001 -1.586 0.51056993 0.004687232 -0.54351509 0.74572939
20.587 -2.9879999 -1.587 0.51107019 0.0098729935 -0.53515166 0.7400524
20.561001 -2.9189999 -1.584 0.51197964 -0.0016556918 -0.53052312 0.73727924
20.59 -2.8570001 -1.586 0.51169342 0.010124064 -0.53136498 0.73775429
20.573 -2.789 -1.584 0.51370305 -0.0080172187 -0.51977646 0.73083693
20.594 -2.7260001 -1.585 0.51194394 -0.048059572 -0.49452209 0.71340621
20.610001 -2.6949999 -1.586 0.50869721 -0.077031009 -0.48021373 0.70378393
20.591999 -2.6270001 -1.584 0.50285137 -0.10254947 -0.45367038 0.68497646
20.542999 -2.49 -1.5779999 0.49477309 -0.13024285 -0.43575823 0.67204827
20.601999 -2.431 -1.582 0.489508 -0.14481652 -0.42615089 0.66497707
20.698999 -2.3759999 -1.59 0.48664004 -0.14567867 -0.41079345 0.65329325
20.738001 -2.348 -1.5930001 0.48605311 -0.15043877 -0.41489363 0.65651822
20.724001 -2.28 -1.591 0.47792056 -0.16684997 -0.399616 0.64493406
20.729 -2.2149999 -1.591 0.46908945 -0.21381265 -0.46022317 0.69106162
20.722 -2.148 -1.59 0.47953236 -0.18784286 -0.44689614 0.68187416
20.75 -2.085 -1.592 0.49578777 -0.1436722 -0.4777104 0.70331675
20.759001 -2.02 -1.592 0.50022131 -0.095617481 -0.4127211 0.65551716
20.783001 -1.957 -1.594 0.44886026 -0.16292568 -0.29782557 0.56277919
20.820999 -1.8940001 -1.596 0.38154992 -0.30693579 -0.32202357 0.58607942
20.847 -1.864 -1.598 -0.2777285 0.080762811 -0.10436973 0.30748788
20.839001 -1.7970001 -1.597 -0.26915121 0.18042956 -0.13815144 0.35225421
20.827 -1.73 -1.596 -0.30575544 0.27177459 -0.24795243 0.47835994
20.818001 -1.664 -1.594 -0.36013085 0.30747232 -0.44353464 0.64881158
20.868999 -1.602 -1.598 -0.24478222 0.32387349 -0.24598888 0.47468188
20.972 -1.543 -1.607 -0.14243948 0.21119511 -0.085128814 0.26858759
