# .PCD v0.7 - Point Cloud Data file format
VERSION 0.7
FIELDS x y z normal_x normal_y normal_z curvature
SIZE 4 4 4 4 4 4 4
TYPE F F F F F F F
COUNT 1 1 1 1 1 1 1
WIDTH 80
HEIGHT 1
VIEWPOINT 0 0 0 1 0 0 0
POINTS 80
DATA ascii
-3.4979999 11.575 0.39199999 0.065193795 0.35299554 -0.20046285 0.41114649
-3.6029999 11.658 0.39300001 0.061459359 0.34659171 -0.19289866 0.40138879
-3.645 11.662 0.39399999 0.058167059 0.35487106 -0.20102957 0.41198272
-3.688 11.672 0.39399999 0.058278736 0.35382983 -0.19964376 0.41042611
-3.724 11.66 0.39399999 0.05690432 0.3564769 -0.19895908 0.41218755
-3.7479999 11.669 0.39399999 0.05690432 0.3564769 -0.19895908 0.41218755
-3.7880001 11.669 0.39399999 0.05734802 0.35178721 -0.1968402 0.40717208
-3.8299999 11.672 0.39500001 0.052432358 0.36325857 -0.21401879 0.42486465
-3.869 11.668 0.39500001 0.052251302 0.35956934 -0.21366006 0.42151028
-3.9100001 11.669 0.39500001 0.03440069 0.41938719 -0.33216438 0.53609908
-3.948 11.662 0.39500001 0.033523049 0.41805345 -0.32831448 0.53261888
-3.9949999 11.68 0.39500001 0.032331958 0.41609123 -0.32948345 0.53172982
-4.0170002 11.683 0.396 0.032331958 0.41609123 -0.32948345 0.53172982
-4.0549998 11.674 0.396 0.031912878 0.41607043 -0.32938939 0.53162998
-4.0949998 11.673 0.396 0.031912945 0.41607046 -0.32938939 0.53162998
-4.1409998 11.684 0.396 0.028289009 0.40799013 -0.31050313 0.5134865
-4.1789999 11.677 0.396 0.028289009 0.40799013 -0.31050313 0.5134865
-4.2839999 11.679 0.39700001 0.031672731 0.40753102 -0.2968275 0.50516462
-4.3270001 11.683 0.39700001 0.034028426 0.40710533 -0.29525322 0.50405073
-4.3699999 11.686 0.39700001 0.031439457 0.4201242 -0.32772207 0.53375512
-4.4109998 11.683 0.398 0.031439457 0.4201242 -0.32772207 0.53375512
-4.4520001 11.683 0.398 0.021383796 0.30130926 -0.14389378 0.33458921
-4.4959998 11.687 0.398 0.015774596 0.29688638 -0.14151245 0.32926604
-4.533 11.673 0.398 0.010719667 0.30815691 -0.14954019 0.34269208
-4.5609999 11.69 0.39899999 0.012814476 0.30636185 -0.14927539 0.3410351
-4.599 11.68 0.39899999 0.0059612012 0.28140455 -0.12537533 0.3081283
-4.6409998 11.68 0.39899999 0.012990912 0.29258519 -0.13556778 0.32272819
-4.6880002 11.691 0.39899999 0.020134062 0.28765142 -0.13085988 0.31665915
-4.7309999 11.691 0.40000001 0.023387268 0.29074979 -0.13379246 0.32090938
-4.7740002 11.691 0.40000001 0.021929819 0.31600466 -0.15078819 0.35082325
-4.8109999 11.678 0.40000001 0.021929819 0.31600466 -0.15078819 0.35082325
-4.835 11.683 0.40000001 0.028962459 0.31239611 -0.14659268 0.34629405
-4.8390002 11.591 0.39899999 0.03435953 0.30252242 -0.14542675 0.33741567
-5.006 11.681 0.40099999 0.034423381 0.30184108 -0.13692486 0.3332288
-5.0469999 11.674 0.40099999 0.033731122 0.30168661 -0.13692939 0.33301991
-5.0929999 11.68 0.40200001 0.034493405 0.3061845 -0.13921776 0.33811289
-5.1350002 11.677 0.40200001 0.030671816 0.31342012 -0.13983423 0.34456718
-5.2030001 11.682 0.40200001 0.013686001 0.2462936 -0.086081296 0.261262
-5.2480001 11.684 0.403 -0.0014465078 0.31400895 -0.14416409 0.34552425
-5.29 11.678 0.403 -0.00051412964 0.31125766 -0.14293084 0.34250668
-5.3369999 11.685 0.403 -0.0035650216 0.27623212 -0.11234584 0.29822555
-5.382 11.686 0.403 -0.0019676764 0.27869681 -0.11253071 0.30056438
-5.427 11.688 0.40400001 -0.0018416047 0.2797381 -0.11338827 0.30185044
-5.4520001 11.694 0.40400001 -0.0013163337 0.28333977 -0.11527637 0.30589506
-3.5469999 11.676 0.331 0.070853144 0.34963205 -0.20240438 0.41015884
-3.631 11.686 0.331 0.05654604 0.35020164 -0.19336078 0.40401366
-3.671 11.684 0.331 0.054777175 0.35035828 -0.19942492 0.40684366
-3.71 11.68 0.331 0.058538578 0.34729126 -0.19066942 0.4004907
-3.7509999 11.682 0.331 0.055651408 0.35376346 -0.19876796 0.40957826
-3.7739999 11.691 0.331 0.055651408 0.35376346 -0.19876796 0.40957826
-3.813 11.685 0.331 0.054430589 0.36364904 -0.21396953 0.42542481
-3.8540001 11.688 0.33199999 0.054622039 0.36368346 -0.2139641 0.42547604
-3.8970001 11.695 0.33199999 0.037298918 0.41919896 -0.33202508 0.53605932
-3.9349999 11.687 0.33199999 0.03440069 0.41938719 -0.33216438 0.53609908
-3.9749999 11.682 0.33199999 0.031168064 0.41668171 -0.32958913 0.532188
-4.0209999 11.697 0.33199999 0.032091275 0.41654032 -0.33073366 0.53284186
-4.059 11.689 0.33199999 0.031912945 0.41607046 -0.32938939 0.53162998
-4.0840001 11.699 0.33199999 0.031912945 0.41607046 -0.32938939 0.53162998
-4.1259999 11.701 0.333 0.032546282 0.41491112 -0.32680476 0.52916145
-4.164 11.692 0.333 0.028289009 0.40799013 -0.31050313 0.5134865
-4.211 11.707 0.333 0.030338146 0.40759072 -0.30074888 0.5074451
-4.3299999 11.691 0.333 0.031716719 0.40687668 -0.29533827 0.50376511
-4.3559999 11.705 0.333 0.032562677 0.41209832 -0.30691752 0.51486284
-4.4000001 11.71 0.33399999 0.031439457 0.4201242 -0.32772207 0.53375512
-4.4390001 11.702 0.33399999 0.027474444 0.41348532 -0.30979806 0.51739711
-4.4850001 11.712 0.33399999 0.014123913 0.30555117 -0.14743 0.33955353
-4.5240002 11.704 0.33399999 0.008733646 0.30762145 -0.14954892 0.34215802
-4.566 11.704 0.33399999 0.010719667 0.30815691 -0.14954019 0.34269208
-4.6090002 11.705 0.33399999 0.0059612012 0.28140455 -0.12537533 0.3081283
-4.6290002 11.701 0.33399999 0.012990912 0.29258519 -0.13556778 0.32272819
-4.6719999 11.701 0.33500001 0.016768251 0.29811877 -0.1408993 0.33016449
-4.717 11.709 0.33500001 0.018289121 0.29999542 -0.1348632 0.32942349
-4.757 11.701 0.33500001 0.019627908 0.31444839 -0.14913777 0.34857583
-4.8010001 11.703 0.33500001 0.021929819 0.31600466 -0.15078819 0.35082325
-4.848 11.714 0.33500001 0.028962459 0.31239611 -0.14659268 0.34629405
-4.8850002 11.698 0.33500001 0.029376045 0.31053963 -0.14504179 0.34399846
-4.9169998 11.724 0.336 0.033082418 0.32080898 -0.15529197 0.35795033
-4.9460001 11.69 0.336 0.041490361 0.30436599 -0.13462645 0.33538693
-5.0430002 11.714 0.336 0.03318058 0.30434585 -0.13716871 0.33547369
-5.0949998 11.731 0.33700001 0.030671816 0.31342012 -0.13983423 0.34456718
