# .PCD v0.7 - Point Cloud Data file format
VERSION 0.7
FIELDS x y z normal_x normal_y normal_z curvature
SIZE 4 4 4 4 4 4 4
TYPE F F F F F F F
COUNT 1 1 1 1 1 1 1
WIDTH 646
HEIGHT 1
VIEWPOINT 0 0 0 1 0 0 0
POINTS 646
DATA ascii
-0.74299997 -6.875 0.19599999 0.013511392 0.29253769 -0.46839616 0.55240911
-0.72000003 -6.8610001 0.19599999 0.011268355 0.29188132 -0.46543396 0.54950017
-0.70899999 -6.8639998 0.19599999 0.012269458 0.29176164 -0.46886814 0.55237007
-0.68800002 -6.868 0.19599999 0.0093975645 0.29190361 -0.46704876 0.55084532
-0.66600001 -6.8660002 0.19599999 0.012553116 0.29181862 -0.46624503 0.55018193
-0.64399999 -6.868 0.19599999 0.0099587981 0.29179001 -0.47049344 0.55371892
-0.62300003 -6.8759999 0.19599999 0.0019745827 0.28803909 -0.46476248 0.54678565
-0.60100001 -6.8759999 0.19599999 0.00072141644 0.28801614 -0.46691161 0.54859847
-0.579 -6.8720002 0.19599999 -0.0052658268 0.28778875 -0.47605559 0.55630839
-0.56900001 -6.8790002 0.19599999 -0.010770513 0.28780717 -0.4765394 0.55681121
-0.54699999 -6.8730001 0.19599999 -0.011989346 0.28781694 -0.47635207 0.55668086
-0.52499998 -6.8730001 0.19599999 -0.016410487 0.28779984 -0.47625571 0.55670238
-0.50400001 -6.8779998 0.19599999 -0.0174115 0.28528017 -0.48161945 0.56004035
-0.48100001 -6.8720002 0.19599999 -0.022466866 0.28506899 -0.48362315 0.56183666
-0.46000001 -6.8709998 0.19599999 -0.021884734 0.28504747 -0.48415506 0.56226075
-0.43799999 -6.8790002 0.19599999 -0.022210531 0.28117332 -0.48411959 0.56028879
-0.42699999 -6.8649998 0.19599999 -0.023556177 0.28035027 -0.48422819 0.5600251
-0.40599999 -6.8769999 0.19599999 -0.029573543 0.2809065 -0.49233547 0.56760663
-0.384 -6.8759999 0.19599999 -0.023252565 0.28358972 -0.49713528 0.57280654
-0.36199999 -6.869 0.19599999 -0.027733186 0.28315157 -0.50046438 0.57568091
-0.34099999 -6.8720002 0.19599999 -0.021420637 0.28320846 -0.50241756 0.5771389
-0.31900001 -6.8790002 0.19599999 -0.02459228 0.28250325 -0.50801295 0.58179897
-0.308 -6.8740001 0.19599999 -0.023049245 0.2824623 -0.50883925 0.58243763
-0.287 -6.8790002 0.19599999 -0.029422835 0.28207597 -0.51000708 0.58355784
-0.26499999 -6.8790002 0.19599999 -0.024930073 0.28139737 -0.51695585 0.58910894
-0.243 -6.8499999 0.19599999 -0.025294276 0.28399956 -0.52019536 0.59321058
-0.22 -6.8189998 0.19599999 -0.027157256 0.28457004 -0.5152179 0.5892089
-0.199 -6.816 0.19599999 -0.025778737 0.28435719 -0.5173462 0.59090662
-0.177 -6.8179998 0.19599999 -0.026613297 0.28394836 -0.52017313 0.59322429
-0.167 -6.8319998 0.19599999 -0.029779544 0.28574777 -0.52062142 0.59463036
-0.145 -6.829 0.19599999 -0.025752552 0.28542465 -0.5239656 0.59721887
-0.124 -6.8330002 0.19599999 -0.026567204 0.28513712 -0.52579266 0.59872103
-0.102 -6.836 0.19599999 -0.026895232 0.28494614 -0.52702194 0.59972477
-0.081 -6.836 0.19599999 -0.01909022 0.28467667 -0.53009158 0.60199863
-0.059999999 -6.8379998 0.19599999 -0.024158929 0.2854895 -0.5290553 0.60165387
-0.037999999 -6.8400002 0.19599999 -0.026292633 0.28507942 -0.53143066 0.60363907
-0.027000001 -6.8439999 0.19599999 -0.026021291 0.28505415 -0.53163052 0.60379136
-0.0060000001 -6.8330002 0.19599999 -0.024994262 0.28459054 -0.53466064 0.60620004
0.016000001 -6.8369999 0.19599999 -0.026368704 0.28521875 -0.53052461 0.60291076
0.037 -6.8319998 0.19599999 -0.028358119 0.28480971 -0.53281236 0.6048221
0.059 -6.8280001 0.19599999 -0.019873139 0.28613061 -0.53442985 0.60653192
0.079999998 -6.8379998 0.19599999 -0.023708131 0.28541636 -0.53478283 0.60664427
0.101 -6.8299999 0.19599999 -0.018374017 0.28604347 -0.53092623 0.60335821
0.123 -6.8330002 0.19599999 -0.013845578 0.28627294 -0.52920794 0.60183465
0.134 -6.8369999 0.19599999 -0.0095037585 0.28676951 -0.52536041 0.59860724
0.155 -6.8390002 0.19599999 -0.0083653238 0.28685385 -0.52459514 0.59795916
0.177 -6.8379998 0.19599999 -0.0083713271 0.28300285 -0.51733643 0.58974373
0.199 -6.8540001 0.19599999 -0.0060544144 0.28320357 -0.51509327 0.58784521
0.22 -6.8390002 0.19599999 -0.0069058519 0.28354624 -0.5126285 0.58586186
0.241 -6.8340001 0.19599999 -0.011194731 0.2837981 -0.51180393 0.58532894
0.252 -6.842 0.19599999 -0.0091670845 0.28385487 -0.5107699 0.58441722
0.27399999 -6.8410001 0.19599999 -0.0017736331 0.29013342 -0.51100606 0.5876289
0.29499999 -6.8379998 0.19599999 0.0022630394 0.29055232 -0.51257944 0.5892058
0.31600001 -6.8270001 0.19599999 -0.0041081104 0.2913819 -0.50757098 0.58527648
0.338 -6.8340001 0.19599999 0.022776121 0.28960425 -0.50807935 0.58526403
0.36000001 -6.8390002 0.19599999 0.026878793 0.28831518 -0.50117606 0.57881391
0.382 -6.842 0.19599999 0.036740683 0.28680325 -0.49706295 0.5750457
0.39300001 -6.8530002 0.19599999 0.054556981 0.28585404 -0.48753724 0.56778651
0.41499999 -6.8520002 0.19599999 0.06364499 0.28757739 -0.48541915 0.567788
0.43900001 -6.8889999 0.19599999 0.12659378 0.27242234 -0.451929 0.54265988
0.461 -6.8909998 0.19599999 0.10972945 0.27702627 -0.44078225 0.53204614
0.48199999 -6.8920002 0.19599999 0.12242323 0.27148652 -0.40938893 0.50625259
0.50400001 -6.8959999 0.19599999 0.14451474 0.26236725 -0.38627917 0.48880741
0.52600002 -6.8940001 0.19599999 0.15985969 0.25185841 -0.3591314 0.46686524
0.53600001 -6.888 0.19599999 0.13492078 0.25889456 -0.3503626 0.45605257
0.56 -6.9060001 0.19599999 0.13503438 0.25260687 -0.32581902 0.43382317
0.60100001 -7.1230001 0.19499999 0.18191887 0.15832245 -0.16710311 0.29340062
0.76800001 -6.9099998 0.19599999 -0.0042453445 0.25873166 -0.24483764 0.35623807
0.79000002 -6.9089999 0.19599999 -0.024370156 0.24769066 -0.22213471 0.33359918
0.81099999 -6.9029999 0.19599999 -0.031517632 0.23939054 -0.22363096 0.32910788
0.82200003 -6.902 0.19599999 -0.046100724 0.24144311 -0.22830607 0.33547536
0.847 -6.921 0.19599999 -0.066291109 0.24575967 -0.22241051 0.33802184
0.86699998 -6.908 0.19599999 -0.087795109 0.24683866 -0.22876558 0.34780884
0.89499998 -6.9510002 0.19599999 -0.11823606 0.22940168 -0.20704323 0.3308652
0.912 -6.9109998 0.19599999 -0.11146898 0.25321004 -0.24895479 0.37218159
0.93400002 -6.9159999 0.19599999 -0.12117817 0.25253358 -0.25432968 0.37833971
0.95899999 -6.934 0.19599999 -0.14504024 0.24618831 -0.24930394 0.37920684
0.97000003 -6.9330001 0.19599999 -0.15613964 0.24500978 -0.25279772 0.38511825
0.99299997 -6.9400001 0.19599999 -0.13180628 0.25706515 -0.26692778 0.39332661
1.011 -6.9070001 0.19599999 -0.11184125 0.26959363 -0.28304809 0.40657771
1.0369999 -6.9330001 0.19599999 -0.10983256 0.26876557 -0.28579429 0.40740213
1.061 -6.9419999 0.19599999 -0.090064101 0.27630967 -0.29919565 0.41710502
1.082 -6.9330001 0.19599999 -0.080015466 0.27822483 -0.30171368 0.41814193
1.1 -6.908 0.19599999 -0.04871159 0.28900525 -0.32441691 0.43719926
1.11 -6.9000001 0.19599999 -0.038587853 0.29024214 -0.33174467 0.4424749
1.131 -6.8959999 0.19599999 -0.036210962 0.29030818 -0.33197221 0.44248798
1.158 -6.9239998 0.19599999 -0.042925362 0.29295534 -0.3321228 0.44493929
1.181 -6.9250002 0.19599999 -0.033294726 0.29375169 -0.33504364 0.4468253
1.202 -6.9169998 0.19599999 -0.031903561 0.29282469 -0.33157915 0.44351873
1.225 -6.921 0.19599999 -0.018564073 0.28932792 -0.33122355 0.44018665
1.2410001 -6.8860002 0.19599999 -0.019253764 0.28927246 -0.34135824 0.44785568
1.226 -6.6890001 0.19599999 -0.037675355 0.28465843 -0.32495987 0.4336459
1.277 -6.8969998 0.19599999 -0.011571798 0.28976279 -0.34404954 0.44996274
1.303 -6.9169998 0.19599999 -0.00050825812 0.28627396 -0.35007155 0.4522202
1.326 -6.9190001 0.19599999 0.019166056 0.2758081 -0.33350325 0.43319958
1.353 -6.9400001 0.19599999 0.0197418 0.27397066 -0.34521008 0.44115719
1.376 -6.9439998 0.19499999 0.026643572 0.26308903 -0.33246005 0.42480043
1.4 -6.9510002 0.19499999 0.058004841 0.25304109 -0.30877608 0.40340677
1.411 -6.947 0.19499999 0.060145065 0.25200135 -0.30578828 0.40078497
1.433 -6.9439998 0.19499999 0.068019874 0.25630337 -0.30901825 0.40719825
1.451 -6.9219999 0.19599999 0.067144863 0.25830597 -0.3155618 0.41329125
1.474 -6.9229999 0.19499999 0.090245441 0.25420102 -0.31410217 0.4140321
1.503 -6.9499998 0.19499999 0.090931706 0.24587445 -0.2943781 0.39418435
1.5190001 -6.9219999 0.19499999 0.079234831 0.25512075 -0.31826979 0.41552427
1.55 -6.9559999 0.19499999 0.090770237 0.23778249 -0.27160978 0.37222522
1.557 -6.9380002 0.19499999 0.088439353 0.24761613 -0.29830611 0.39764532
1.579 -6.9330001 0.19499999 0.084198192 0.2510263 -0.30085179 0.40076843
1.599 -6.9219999 0.19499999 0.072596058 0.25881556 -0.32127583 0.41889599
1.624 -6.9310002 0.19499999 0.047858797 0.24853295 -0.27914122 0.37680089
1.65 -6.941 0.19499999 0.030615697 0.24573746 -0.26816207 0.36501387
1.673 -6.9400001 0.19499999 0.01270912 0.24346314 -0.26296151 0.35858691
1.699 -6.9520001 0.19499999 0.0049510435 0.24277286 -0.26088551 0.35640487
1.7539999 -7.1279998 0.19499999 -0.050031748 0.20508118 -0.20039678 0.29106757
1.778 -7.1259999 0.19499999 -0.087122239 0.20152767 -0.20868899 0.30291051
1.801 -7.1240001 0.19499999 -0.10480368 0.20596239 -0.22438519 0.32210717
1.827 -7.1339998 0.19499999 -0.12578493 0.19785917 -0.21893878 0.32078698
1.839 -7.086 0.19499999 -0.14078172 0.22024041 -0.26861006 0.37480223
1.8150001 -6.9099998 0.19499999 -0.078499287 0.25414133 -0.30356854 0.40361345
1.829 -6.875 0.19499999 -0.071211301 0.25439119 -0.34644783 0.43567422
1.844 -6.8860002 0.19499999 -0.080595829 0.25272539 -0.34500605 0.43519533
1.878 -6.9260001 0.19499999 -0.091304585 0.26173812 -0.33996651 0.43865773
1.906 -6.9419999 0.19499999 -0.088348389 0.26436788 -0.35504904 0.45139298
1.927 -6.934 0.19499999 -0.083795391 0.268354 -0.37316567 0.46721318
1.949 -6.9299998 0.19499999 -0.077497058 0.27144957 -0.38783768 0.47969648
1.975 -6.9369998 0.19499999 -0.084212229 0.27262425 -0.40907133 0.49875349
1.997 -6.9330001 0.19499999 -0.086228259 0.25643247 -0.40871531 0.49014398
2.01 -6.9349999 0.19499999 -0.081171632 0.25776282 -0.41694999 0.49686798
2.0350001 -6.9380002 0.19499999 -0.081604019 0.26445431 -0.44616348 0.52503061
2.0380001 -6.8709998 0.19499999 -0.059734739 0.27173266 -0.46025467 0.53781152
2.063 -6.8759999 0.19499999 -0.068517223 0.27288175 -0.46603072 0.54437459
2.0899999 -6.8860002 0.19499999 -0.056781262 0.27508992 -0.47801194 0.5544312
2.115 -6.8909998 0.19499999 -0.053031027 0.27491471 -0.4872905 0.56199861
2.1389999 -6.8920002 0.19499999 -0.039393529 0.27599072 -0.4915303 0.56508827
2.148 -6.881 0.19499999 -0.026143171 0.27611679 -0.50091803 0.57257557
2.175 -6.8920002 0.19499999 -0.015493045 0.27558243 -0.51051247 0.58035219
2.2030001 -6.9060001 0.19499999 0.007607976 0.27355748 -0.51485002 0.58306271
2.223 -6.8930001 0.19499999 0.01666302 0.27206254 -0.5244534 0.59105587
2.2490001 -6.8990002 0.19499999 0.023724075 0.27185416 -0.52453017 0.59126931
2.2709999 -6.8920002 0.19499999 0.023656495 0.2715584 -0.52642959 0.59281677
2.2969999 -6.8979998 0.19499999 0.0306486 0.27059042 -0.53055972 0.59636575
2.309 -6.9000001 0.19499999 0.027412605 0.27073774 -0.53066134 0.59636551
2.3329999 -6.8990002 0.19499999 0.033959407 0.26956779 -0.53531808 0.60032117
2.358 -6.901 0.19499999 0.036289182 0.26918459 -0.53643763 0.60128409
2.385 -6.908 0.19499999 0.042230327 0.26768684 -0.53979278 0.60399991
2.4089999 -6.908 0.19499999 0.046220336 0.26699442 -0.54156089 0.60556632
2.434 -6.9099998 0.19499999 0.049472727 0.26817358 -0.5333823 0.59905034
2.457 -6.9060001 0.19499999 0.051254686 0.26844466 -0.53074169 0.59697264
2.4719999 -6.9120002 0.19499999 0.052377693 0.26823598 -0.53127825 0.59745342
2.4960001 -6.9120002 0.19499999 0.057661608 0.26662514 -0.52511394 0.59174192
2.52 -6.9109998 0.19499999 0.056974098 0.26716745 -0.52212197 0.58926719
2.543 -6.9050002 0.19499999 0.061917506 0.26655418 -0.51990229 0.58752298
2.5699999 -6.9120002 0.19499999 0.059193131 0.26484376 -0.52006084 0.58660835
2.5940001 -6.9099998 0.19499999 0.06359224 0.26519987 -0.51383364 0.58172154
2.6210001 -6.915 0.19499999 0.060440753 0.26597166 -0.51103604 0.57926834
2.6340001 -6.9180002 0.19499999 0.060107432 0.26597232 -0.51133585 0.57949853
2.6600001 -6.9190001 0.19499999 0.065782912 0.26488131 -0.50635666 0.57522738
2.704 -6.9679999 0.19499999 0.05864786 0.26324335 -0.4969832 0.56544578
2.733 -6.9759998 0.19499999 0.053202085 0.26503909 -0.4908354 0.5603531
2.7590001 -6.9790001 0.19499999 0.052371398 0.26550376 -0.48903346 0.55891746
2.7839999 -6.9780002 0.19499999 0.041490939 0.26654482 -0.48889488 0.55837786
2.813 -6.9860001 0.19499999 0.044695053 0.2658591 -0.48688632 0.55654019
2.8280001 -6.9920001 0.19499999 0.04117978 0.26620761 -0.48585835 0.55553633
2.8529999 -6.9910002 0.19499999 0.038780298 0.26661074 -0.48293754 0.55300438
2.8770001 -6.9850001 0.19499999 0.030858483 0.2669639 -0.48420912 0.55378735
2.902 -6.9840002 0.19499999 0.023840498 0.26730895 -0.48362815 0.5530991
2.9300001 -6.9889998 0.19499999 0.018782254 0.26734143 -0.48510182 0.55420935
2.9549999 -6.987 0.19499999 0.0097951107 0.26771319 -0.48229828 0.55170453
2.9820001 -6.9910002 0.19499999 -0.004150412 0.26779187 -0.4800005 0.54966372
3.003 -7.0079999 0.19499999 -0.010626421 0.2675311 -0.48113117 0.5506115
3.0220001 -6.993 0.19499999 -0.016151659 0.26675132 -0.48199123 0.55111951
3.056 -7.0110002 0.19499999 -0.023096012 0.26618069 -0.48452663 0.55330974
3.075 -6.994 0.19499999 -0.02258658 0.26598519 -0.48716307 0.55550528
3.108 -7.0079999 0.19499999 -0.035017826 0.26541418 -0.48890802 0.55740649
3.1300001 -6.9990001 0.19499999 -0.0334883 0.26531851 -0.49098805 0.5590927
3.1440001 -6.9699998 0.19499999 -0.034679752 0.2652151 -0.49125731 0.5593527
3.1570001 -6.9710002 0.19499999 -0.037432015 0.26472372 -0.49427828 0.56195271
3.174 -6.9499998 0.19499999 -0.036432244 0.26464224 -0.49573761 0.56313288
3.1989999 -6.947 0.19499999 -0.033338331 0.26482439 -0.49596789 0.56322962
3.2249999 -6.9460001 0.19499999 -0.031502992 0.26455683 -0.49943641 0.56605607
3.2490001 -6.9419999 0.19499999 -0.031758904 0.27599296 -0.50918144 0.5800401
3.277 -6.9439998 0.19499999 -0.02425722 0.27583927 -0.51352197 0.58342141
3.302 -6.9390001 0.19499999 -0.024387937 0.27563873 -0.51500446 0.58463752
3.316 -6.941 0.19499999 -0.022742398 0.27543959 -0.51700723 0.58624285
3.3510001 -6.9580002 0.19400001 -0.015561615 0.27461502 -0.52441347 0.59216982
3.372 -6.9450002 0.19499999 -0.021682525 0.27392751 -0.52154261 0.58950245
3.4059999 -6.96 0.19400001 -0.017263543 0.27317578 -0.52716404 0.59399068
3.4289999 -6.9510002 0.19400001 -0.015729068 0.27256703 -0.53107411 0.59714311
3.46 -6.96 0.19400001 -0.011989394 0.27304852 -0.52844846 0.59494287
3.4679999 -6.947 0.19400001 -0.012038132 0.27305073 -0.52843201 0.59493023
3.497 -6.9499998 0.19400001 0.0054613976 0.27251583 -0.52626544 0.59266353
3.5220001 -6.947 0.19400001 -0.0031287875 0.27782744 -0.52367997 0.59282255
3.562 -6.9710002 0.19400001 -0.0011967104 0.27779675 -0.52222687 0.59151787
3.582 -6.954 0.19400001 0.0039645042 0.2780844 -0.51873374 0.58858418
3.6099999 -6.9559999 0.19400001 0.015386989 0.28152341 -0.51007098 0.58280748
3.638 -6.9569998 0.19400001 0.012799082 0.28189397 -0.50815392 0.58124733
3.652 -6.9559999 0.19400001 0.017102169 0.28192934 -0.50555921 0.5791086
3.678 -6.9520001 0.19400001 0.025753153 0.28143358 -0.50437498 0.57815415
3.704 -6.9489999 0.19400001 0.027498694 0.28146607 -0.5026896 0.57678086
3.7320001 -6.948 0.19400001 0.039250456 0.28098071 -0.49599349 0.57140207
3.7620001 -6.9520001 0.19400001 0.05823762 0.27943113 -0.48490578 0.5626784
3.7920001 -6.954 0.19400001 0.066559881 0.27528459 -0.47265676 0.55101383
3.8469999 -7.0029998 0.19400001 0.093653679 0.27038723 -0.46576303 0.54664016
3.8640001 -7.0079999 0.19400001 0.087572113 0.27174902 -0.46355712 0.54442781
3.8889999 -7.0009999 0.19400001 0.077198759 0.2743299 -0.45385098 0.53590786
3.925 -7.013 0.19400001 0.073728822 0.27219731 -0.45145541 0.5322963
3.9089999 -6.9349999 0.19400001 0.061871089 0.27703148 -0.4573594 0.53828627
4.098 -7.2140002 0.19400001 0.0070015714 0.25662649 -0.40484297 0.47937876
4.1370001 -7.2290001 0.19400001 -0.038141169 0.25510347 -0.38452554 0.4630253
4.1589999 -7.2160001 0.19400001 -0.075367607 0.25041717 -0.36198467 0.44656685
4.1739998 -7.2140002 0.19400001 -0.068474963 0.25044334 -0.35858285 0.44271022
4.164 -7.1459999 0.19400001 -0.019608866 0.25589627 -0.39443347 0.47057962
4.1680002 -7.1020002 0.19400001 -0.016924554 0.26200527 -0.4033125 0.48124233
4.1719999 -7.0580001 0.19400001 -0.012876598 0.27717763 -0.40971369 0.49483183
4.2030001 -7.0599999 0.19400001 -0.023043919 0.27761871 -0.41183344 0.4972021
4.2379999 -7.0669999 0.19400001 -0.038231961 0.27587974 -0.39227906 0.48109686
4.2620001 -7.0570002 0.19400001 -0.053409263 0.27531266 -0.39100021 0.48117644
4.283 -7.066 0.19400001 -0.06470266 0.27438819 -0.38835767 0.4798927
4.3130002 -7.066 0.19400001 -0.070664763 0.27520698 -0.38327777 0.47711033
4.3410001 -7.0609999 0.19400001 -0.06841737 0.2754572 -0.38397259 0.47748566
4.3660002 -7.053 0.19400001 -0.054180756 0.27660155 -0.39025393 0.48139602
4.3990002 -7.0560002 0.19400001 -0.057812661 0.27366173 -0.38726956 0.47771409
4.4260001 -7.0500002 0.19400001 -0.058522582 0.27784395 -0.37632477 0.47142601
4.4590001 -7.053 0.19400001 -0.048412338 0.27361596 -0.37484044 0.4665992
4.4829998 -7.066 0.193 -0.047423743 0.27277851 -0.36915925 0.46144956
4.5019999 -7.0469999 0.19400001 -0.040660575 0.27335745 -0.37422037 0.46520796
4.5359998 -7.052 0.193 -0.028715871 0.27401364 -0.38422573 0.47279751
4.5780001 -7.0669999 0.193 -0.0059062056 0.27912152 -0.39407018 0.4829441
4.5999999 -7.053 0.193 -0.0098409634 0.27972341 -0.39776769 0.48637554
4.6300001 -7.0500002 0.193 -0.016744897 0.28007704 -0.39843905 0.48731634
4.6630001 -7.052 0.193 -0.047613457 0.28067327 -0.39310509 0.48536187
4.6820002 -7.0570002 0.193 -0.041434065 0.26545566 -0.37576228 0.46193159
4.711 -7.052 0.193 -0.035795473 0.2854 -0.37489662 0.47252721
4.7449999 -7.0549998 0.193 -0.046584625 0.28448084 -0.37460411 0.4726814
4.776 -7.0539999 0.193 -0.040835503 0.2843219 -0.37360954 0.47126487
4.8039999 -7.0469999 0.193 -0.048632339 0.28480023 -0.37677526 0.47480088
4.8410001 -7.053 0.193 -0.04562268 0.28508958 -0.37857339 0.47610429
4.8769999 -7.0570002 0.193 -0.028556449 0.28013629 -0.37244564 0.46691281
4.8649998 -7.0170002 0.193 -0.036685489 0.28415489 -0.37283298 0.47020662
4.823 -6.9099998 0.193 -0.050947342 0.28538316 -0.38115025 0.47886813
4.9590001 -7.0560002 0.193 -0.03836187 0.26046064 -0.34568238 0.43452007
4.9959998 -7.0619998 0.193 -0.046595272 0.25924322 -0.33838546 0.42881566
5.0320001 -7.066 0.193 -0.028686991 0.26097488 -0.35090232 0.43825024
5.066 -7.066 0.193 -0.037868753 0.25838119 -0.3355518 0.42519394
5.0890002 -7.052 0.193 -0.041379303 0.26175943 -0.33912441 0.43039006
5.243 -7.2389998 0.193 -0.14250816 0.19475788 -0.23017472 0.33349603
5.237 -7.184 0.193 -0.10909948 0.20907187 -0.25272661 0.34566528
5.2449999 -7.1479998 0.193 -0.11125752 0.22330138 -0.2983723 0.38893157
5.25 -7.1079998 0.193 -0.091006592 0.26347131 -0.37095407 0.46401104
5.2540002 -7.0669999 0.193 -0.087012805 0.26665705 -0.38883924 0.47945091
5.2810001 -7.0570002 0.193 -0.074762478 0.26972818 -0.41774562 0.50284606
5.3039999 -7.0650001 0.193 -0.076847345 0.26879576 -0.4266566 0.51009071
5.329 -7.0510001 0.193 -0.073199995 0.26912805 -0.43245688 0.51459414
5.3660002 -7.0539999 0.193 -0.083230376 0.26858601 -0.44515267 0.52652317
5.3649998 -7.007 0.193 -0.0731152 0.26871204 -0.46355537 0.54077309
5.421 -7.0339999 0.193 -0.070514977 0.26826614 -0.47388276 0.54909378
5.4310002 -7.0009999 0.193 -0.062605634 0.26757595 -0.48646381 0.55871582
5.4660001 -7.0009999 0.193 -0.062471092 0.26657575 -0.49641278 0.56691349
5.487 -7.0050001 0.193 -0.068366073 0.26668531 -0.49764061 0.56871885
5.5279999 -7.0120001 0.193 -0.062258605 0.26594853 -0.50446594 0.57366419
5.5560002 -7.0019999 0.193 -0.058739386 0.26493216 -0.51204205 0.57950532
5.5970001 -7.0079999 0.193 -0.04165436 0.26479584 -0.51129997 0.57730371
5.6409998 -7.0180001 0.193 -0.025951959 0.27194384 -0.51642811 0.58423024
5.6789999 -7.0190001 0.192 -0.022678852 0.26901343 -0.51538116 0.58180779
5.7179999 -7.0229998 0.192 -0.012410391 0.2718119 -0.52136046 0.58809221
5.7459998 -7.0339999 0.192 -0.014878176 0.26252517 -0.51447183 0.57777339
5.7859998 -7.0370002 0.192 -0.01709475 0.26262927 -0.5152626 0.57858616
5.8210001 -7.0349998 0.192 -0.0070386641 0.26185507 -0.51309872 0.57609713
5.8569999 -7.033 0.192 -0.0116379 0.26302913 -0.50866443 0.57276458
5.8909998 -7.0279999 0.192 -0.01211483 0.26341707 -0.50623429 0.57079637
5.9320002 -7.033 0.192 -0.0048897713 0.26570839 -0.5010761 0.56718791
5.9749999 -7.0380001 0.192 0.00014819205 0.26235661 -0.49698362 0.56198198
6.0050001 -7.052 0.192 0.012164064 0.26274955 -0.49192742 0.55783319
6.046 -7.0539999 0.192 0.013861589 0.27882302 -0.49783075 0.57076252
6.1059999 -7.079 0.192 0.01249437 0.26007175 -0.4811193 0.54705501
6.151 -7.085 0.192 0.024477642 0.26605332 -0.48047581 0.54976404
6.2610002 -7.1669998 0.192 0.0069473758 0.26950482 -0.47411028 0.5454005
6.3060002 -7.1719999 0.192 0.0056864843 0.26985213 -0.47008833 0.54206598
6.3309999 -7.1560001 0.192 0.0022688955 0.27021411 -0.468876 0.54117054
6.3010001 -7.099 0.192 0.0077509657 0.26962057 -0.47081882 0.54261005
6.3299999 -7.0869999 0.192 0.0054057091 0.26985657 -0.47047836 0.54240364
6.3850002 -7.1030002 0.192 0.0026207231 0.26581213 -0.46437919 0.53508031
6.4289999 -7.1059999 0.192 -0.0026658177 0.26619887 -0.46418715 0.53510618
6.4679999 -7.105 0.192 -0.01788432 0.2670221 -0.46307921 0.53484857
6.5100002 -7.105 0.192 -0.014040018 0.26869291 -0.4628261 0.53535128
6.5430002 -7.0970001 0.192 -0.014117376 0.26876247 -0.46104896 0.5338527
6.5809999 -7.1160002 0.191 -0.021142513 0.26754728 -0.45754334 0.53044742
-16.865 -6.427 0.064000003 0.020370945 0.26901388 -0.485264 0.55521578
-16.757999 -6.447 0.064000003 0.022939179 0.26893631 -0.48559418 0.55556697
-16.617001 -6.4520001 0.064999998 0.0064595821 0.27542439 -0.48588148 0.55855268
-16.474001 -6.4569998 0.066 0.0013697245 0.32659751 -0.50805241 0.6039744
-16.354 -6.4390001 0.067000002 0.0027712174 0.32696331 -0.50213706 0.59921139
-16.209 -6.4419999 0.068000004 0.0079359598 0.31380934 -0.499336 0.58980989
-16.087999 -6.4520001 0.068999998 0.016041689 0.35673612 -0.51266205 0.62477225
-15.943 -6.4530001 0.07 0.01392867 0.36018381 -0.51458979 0.62827462
-15.832 -6.4660001 0.071000002 0.01015901 0.35940868 -0.5161221 0.62901497
-15.699 -6.4689999 0.071999997 0.009208912 0.35821185 -0.50897801 0.62246215
-15.59 -6.4819999 0.072999999 0.021694813 0.34593242 -0.50281382 0.61070585
-15.467 -6.46 0.074000001 0.078787357 0.34149998 -0.49528271 0.60674101
-15.358 -6.4710002 0.075000003 0.14321929 0.33378533 -0.51833212 0.63292384
-15.236 -6.4759998 0.075000003 0.2583755 0.28000188 -0.53624743 0.65781474
-15.109 -6.4790001 0.075999998 0.3372809 0.2231354 -0.52418864 0.66205859
-15.146 -6.5510001 0.075999998 0.35869408 0.2035719 -0.52738994 0.66950959
-15.149 -6.6079998 0.075999998 0.38350338 0.18119243 -0.51455992 0.66684139
-15.145 -6.6630001 0.075999998 0.34578267 0.19835491 -0.49831817 0.63814682
-15.167 -6.7020001 0.075000003 0.39145038 0.11677736 -0.48728493 0.63585925
-15.153 -6.7519999 0.075000003 0.41271356 0.08681035 -0.46825853 0.63018614
-14.893 -6.6929998 0.077 0.11538983 0.30129266 -0.52235132 0.61395681
-14.555 -6.5970001 0.079999998 -0.080364868 0.35450649 -0.4782353 0.60070157
-14.76 -6.7449999 0.078000002 -0.10269357 0.29762143 -0.51743442 0.60569203
-14.511 -6.6869998 0.079999998 0.084178723 0.29563302 -0.47460368 0.56544989
-14.751 -6.8540001 0.078000002 -0.115373 0.25714901 -0.52357787 0.59461778
-14.688 -6.8520002 0.078000002 -0.15906596 0.24498083 -0.50442922 0.58289486
-14.366 -6.7579999 0.081 0.12646256 0.28090847 -0.54147357 0.6229735
-13.892 -6.5890002 0.085000001 0.082127161 -0.5003475 -0.10967934 0.51876974
-13.854 -6.6240001 0.085000001 0.036708314 -0.51989383 -0.092542529 0.52934039
-13.962 -6.73 0.083999999 -0.014560789 -0.53502655 -0.082642019 0.54156733
-14.017 -6.8099999 0.082999997 0.0188911 0.16187668 -0.79912758 0.81557697
-14.101 -6.9060001 0.082000002 0.036101285 0.21635 -0.66652548 0.70168859
-14.04 -6.9039998 0.082999997 0.030207975 0.19778886 -0.74893534 0.77520132
-13.888 -6.8829999 0.083999999 0.046226941 0.17923084 -0.76110804 0.78329182
-13.723 -6.855 0.085000001 0.0051810313 0.1318886 -0.80842489 0.81912893
-13.531 -6.8130002 0.086999997 -0.07785853 -0.51615453 -0.047758251 0.52417392
-13.656 -6.9299998 0.085000001 0.054854125 0.16352305 -0.76785195 0.78698498
-13.583 -6.9460001 0.086000003 -0.00354815 0.23566647 -0.66224968 0.70294088
-13.507 -6.9619999 0.086000003 -0.054191839 0.24356516 -0.64242315 0.68917942
-13.386 -6.9260001 0.086999997 -0.078579776 0.17501478 -0.75480318 0.77880216
-12.606 -6.5739999 0.093999997 -0.034790494 0.34409571 -0.53209549 0.63461632
-12.54 -6.5900002 0.093999997 -0.017475359 0.35148057 -0.53280538 0.63853389
-12.482 -6.6100001 0.094999999 -0.016825896 0.35101324 -0.53010732 0.6360088
-12.364 -6.5970001 0.094999999 0.037349138 0.35152555 -0.52791202 0.6353395
-12.934 -6.9520001 0.090000004 0.46100658 -0.29706317 -0.28409961 0.61764568
-12.155 -6.585 0.097000003 0.092270628 0.34850189 -0.52181929 0.63424194
-12.064 -6.5599999 0.097999997 0.065370165 0.34286562 -0.52519786 0.63060522
-11.999 -6.5739999 0.097999997 0.060478244 0.32955083 -0.5037812 0.6050263
-11.919 -6.579 0.098999999 0.049661458 0.29252881 -0.50528765 0.58596498
-11.835 -6.5809999 0.098999999 0.23664407 0.23975387 -0.50464392 0.60675186
-12.024 -6.7350001 0.097000003 0.48585644 -0.33096957 -0.3396613 0.6789456
-11.682 -6.5929999 0.1 0.39451045 0.099634707 -0.46852848 0.62055176
-11.906 -6.7680001 0.097999997 0.4459095 -0.0084308982 -0.53660703 0.69774884
-11.95 -6.8179998 0.097999997 0.48985803 -0.14711355 -0.51750994 0.72761244
-12.206 -7.0139999 0.094999999 -0.26090667 0.16409889 -0.43529823 0.53337163
-12.106 -7.0079999 0.096000001 -0.21733694 0.1900118 -0.42179075 0.51112354
-12.046 -7.0229998 0.096000001 -0.13185254 0.21739659 -0.41662249 0.48807856
-11.998 -7.046 0.096000001 -0.058609851 0.23125836 -0.46325791 0.52107906
-11.743 -6.947 0.097999997 0.27466601 0.1656428 -0.43057781 0.53691357
-11.647 -6.9400001 0.098999999 0.24912421 0.17697799 -0.42510542 0.52354437
-11.634 -6.9569998 0.098999999 0.24968763 0.17667624 -0.42893922 0.52682757
-11.616 -6.9959998 0.098999999 0.16395444 0.21004951 -0.42729542 0.5035705
-11.421 -6.928 0.101 0.11713795 0.23074132 -0.45986012 0.5276686
-11.529 -7.0419998 0.098999999 0.13257204 0.22970307 -0.4577353 0.5290184
-11.507 -7.079 0.098999999 0.1314075 0.21911889 -0.45041621 0.51783758
-11.437 -7.085 0.1 0.095836058 0.2203472 -0.4466528 0.50718457
-11.313 -7.0580001 0.101 0.051673777 0.24204591 -0.45394778 0.51703483
-10.55 -6.6069999 0.108 -0.13223706 0.24169627 -0.44962856 0.52732301
-10.553 -6.6550002 0.108 -0.14755622 0.2329423 -0.38096049 0.47028273
-10.456 -6.6399999 0.108 -0.12635645 0.24188709 -0.37607348 0.46465749
-10.344 -6.6149998 0.109 -0.096726656 0.25451535 -0.40384233 0.48705518
-10.269 -6.6129999 0.11 -0.07308846 0.25359923 -0.38762838 0.46894589
-10.211 -6.6209998 0.11 0.0067307036 0.24961218 -0.42558628 0.4934321
-10.145 -6.6240001 0.11 0.030627979 0.24679539 -0.45451248 0.51810002
-10.081 -6.605 0.111 0.020535465 0.24760437 -0.44130841 0.50644124
-10.04 -6.6230001 0.111 0.045790896 0.24496573 -0.4689661 0.53106892
-9.9169998 -6.632 0.112 0.04538976 0.23678443 -0.53176904 0.58387107
-9.8610001 -6.6399999 0.112 0.092656262 0.22356838 -0.59011698 0.63781351
-9.802 -6.645 0.113 0.094804168 0.19295126 -0.66208684 0.69611567
-9.7449999 -6.651 0.113 0.065690301 0.18160573 -0.67563856 0.70269716
-9.691 -6.6370001 0.113 0.063562974 0.22550145 -0.57214475 0.61825621
-9.6269999 -6.638 0.114 0.064062938 0.20397627 -0.63114095 0.66637021
-9.5780001 -6.6490002 0.114 0.037612751 0.15019274 -0.72540462 0.74174416
-9.5150003 -6.6490002 0.114 -0.010445084 -0.57439196 -0.048569113 0.57653642
-9.4499998 -6.6479998 0.115 -0.022425216 -0.54423767 -0.025701493 0.54530549
-9.3959999 -6.6550002 0.115 -0.052464686 -0.50671965 -0.0064949095 0.50946981
-9.3310003 -6.6529999 0.116 -0.091439828 -0.47720921 -0.0033583939 0.4859024
-9.2880001 -6.6440001 0.116 -0.14816347 -0.46556073 -0.013683915 0.48876011
-9.2329998 -6.6490002 0.116 0.20098777 0.021230265 -0.8090837 0.83394438
-9.1829996 -6.6570001 0.117 0.21989474 0.0041054636 -0.80816096 0.83755279
-9.1309996 -6.6630001 0.117 0.31421295 0.015313715 -0.73953211 0.80366164
-9.3699999 -6.882 0.114 0.16403665 0.042115092 -0.79948527 0.81722605
-9.4899998 -7.0159998 0.113 0.14995034 0.18985617 -0.58656842 0.63450217
-9.441 -7.0250001 0.113 0.10666069 0.21334535 -0.54746199 0.59716612
-9.4069996 -7.0229998 0.113 0.12101834 0.21129894 -0.53238177 0.5854255
-9.3599997 -7.0339999 0.114 0.064916223 0.22849143 -0.49745831 0.55125964
-9.3149996 -7.046 0.114 0.051977824 0.23281488 -0.48190558 0.53771502
-9.243 -7.0380001 0.114 0.055103723 0.23590359 -0.4695538 0.52836323
-9.177 -7.033 0.115 0.0482211 0.23424727 -0.46080115 0.51916736
-9.118 -7.0339999 0.115 0.055198807 0.23864114 -0.46472242 0.5253222
-9.085 -7.0539999 0.115 0.045242175 0.24004871 -0.45499122 0.51641768
-9.0229998 -7.0289998 0.116 0.044953704 0.24018919 -0.45819354 0.51928121
-8.9619999 -7.027 0.116 0.04091486 0.2441543 -0.45934492 0.52180755
-8.9359999 -7.052 0.116 0.024208374 0.23847982 -0.45539281 0.51462728
-8.8719997 -7.0469999 0.117 0.027284648 0.2382693 -0.45669401 0.51583534
-8.8149996 -7.0469999 0.117 0.031612791 0.23879427 -0.45822763 0.51768202
-8.7700005 -7.0560002 0.117 0.030210629 0.23882115 -0.45910552 0.51838797
-8.71 -7.0539999 0.118 0.022653289 0.23909172 -0.46068081 0.51952362
-8.6619997 -7.0370002 0.118 0.023561984 0.23902765 -0.46105775 0.51986885
-8.6210003 -7.0489998 0.118 0.031006116 0.23650107 -0.4606638 0.51875359
-8.5679998 -7.0510001 0.119 0.032814153 0.23606783 -0.46472853 0.52228093
-8.5190001 -7.0560002 0.119 0.046802569 0.23474807 -0.46518385 0.52315688
-8.4829998 -7.0710001 0.119 0.050016329 0.23427916 -0.46665931 0.52455628
-8.3570004 -7.0110002 0.12 0.036116589 0.2414031 -0.48510417 0.54305243
-8.3649998 -7.085 0.12 0.047792967 0.22398248 -0.47310722 0.52562606
-8.323 -7.0939999 0.12 0.042002745 0.22925878 -0.48508468 0.53817374
-8.276 -7.0999999 0.12 -0.0069706547 0.22963822 -0.48376125 0.53554386
-8.2550001 -7.1269999 0.12 -0.017905198 0.22943866 -0.4820731 0.53418833
-8.2049999 -7.1290002 0.12 -0.057324499 0.22852743 -0.4540433 0.5115332
-8.177 -7.1500001 0.12 -0.058494922 0.23030609 -0.47639084 0.53236341
-8.1529999 -7.1739998 0.12 -0.076778501 0.2290864 -0.46250451 0.52181023
-8.1219997 -7.1700001 0.121 -0.084012121 0.22754744 -0.46705031 0.52628112
-7.783 -6.9159999 0.124 -0.21072704 0.211055 -0.4847554 0.5691554
-7.4400001 -6.6539998 0.127 -0.053513587 0.26657116 -0.47492591 0.54724628
-7.402 -6.6620002 0.127 -0.016260916 0.26971447 -0.47364864 0.54530114
-7.3759999 -6.6810002 0.12800001 -0.0088890288 0.26554668 -0.46970072 0.53964138
-7.3340001 -6.6849999 0.12800001 0.00076169637 0.27042076 -0.47428596 0.54596257
-7.2820001 -6.6799998 0.12800001 0.021047214 0.27021444 -0.47261375 0.54481429
-7.2410002 -6.6630001 0.12800001 0.050098345 0.26978189 -0.4717977 0.54578859
-7.21 -6.6760001 0.12899999 0.077935167 0.26654375 -0.46962589 0.54558957
-7.158 -6.6700001 0.12899999 0.09995947 0.2630834 -0.46761265 0.5457713
-7.119 -6.6760001 0.12899999 0.12332793 0.2572749 -0.46374488 0.54448086
-7.0809999 -6.6820002 0.12899999 0.14633432 0.25065801 -0.46505663 0.54819781
-7.0310001 -6.677 0.13 0.16813712 0.24350002 -0.459712 0.54671514
-6.994 -6.684 0.13 0.18998939 0.23519433 -0.44795758 0.54044271
-6.9619999 -6.6739998 0.13 0.20301554 0.22949198 -0.43821675 0.53471094
-6.9219999 -6.678 0.13 0.20587564 0.23049369 -0.42520845 0.5256561
-6.8959999 -6.6950002 0.13 0.22654535 0.21882972 -0.40256691 0.51114517
-6.9029999 -6.744 0.13 0.25569159 0.19999695 -0.4048562 0.51892728
-6.9070001 -6.79 0.13 0.32885855 0.13979927 -0.3665449 0.51190519
-6.9070001 -6.8330002 0.12899999 0.37625727 0.087778121 -0.35605407 0.52540368
-6.8930001 -6.862 0.12899999 0.43286535 -0.011394814 -0.32538834 0.54164547
-6.8369999 -6.8280001 0.13 0.37919825 0.051095471 -0.2944144 0.48278558
-6.829 -6.8629999 0.13 0.43000239 -0.066913739 -0.25118691 0.50246829
-6.961 -7.039 0.12800001 0.48899072 -0.2851207 -0.36240229 0.67211694
-6.9689999 -7.0910001 0.12800001 0.47937864 -0.35224798 -0.36037171 0.69552159
-6.9770002 -7.1440001 0.127 0.47725156 -0.36757687 -0.37020019 0.70705724
-6.98 -7.1919999 0.127 0.48176318 -0.35947281 -0.37220252 0.70700157
-6.973 -7.2290001 0.127 0.48504886 -0.34107521 -0.37300742 0.70052785
-6.9949999 -7.2750001 0.126 0.48791185 -0.31781906 -0.37133086 0.69061822
-7.0009999 -7.3270001 0.126 0.49398229 -0.29881924 -0.38160586 0.69205093
-6.9899998 -7.362 0.126 0.49391443 -0.29860702 -0.38065869 0.69138891
-6.9850001 -7.4029999 0.126 0.49225739 -0.30473912 -0.37237808 0.68836671
-6.994 -7.46 0.125 0.49211788 -0.30220789 -0.36931786 0.68549639
-6.9980001 -7.5110002 0.125 0.49482602 -0.30004942 -0.37328154 0.68863744
-6.9910002 -7.5500002 0.125 0.49452722 -0.30877349 -0.3673611 0.68909538
-7.0009999 -7.585 0.125 0.49307671 -0.31502679 -0.36204842 0.68807381
-7 -7.632 0.124 0.49321556 -0.31283838 -0.36278445 0.68756235
-7 -7.6799998 0.124 0.48841596 -0.31147861 -0.35971439 0.68188232
-7.007 -7.7360001 0.124 0.48833665 -0.3327885 -0.34041694 0.68198574
-6.0209999 -6.6950002 0.13500001 -0.051272899 0.27400404 -0.46254563 0.54005146
-5.9889998 -6.7020001 0.13500001 -0.024571758 0.27539623 -0.47010049 0.54538184
-5.9530001 -6.704 0.13500001 0.058064345 0.27263793 -0.4764449 0.55199879
-5.9349999 -6.7049999 0.13500001 0.063870437 0.27211574 -0.47374201 0.55005264
-5.8930001 -6.6989999 0.13600001 0.089091517 0.26819679 -0.47636482 0.55388653
-5.8730001 -6.7189999 0.13600001 0.12827718 0.2571429 -0.46751717 0.54877114
-5.8179998 -6.698 0.13600001 0.14412086 0.25199056 -0.46128953 0.54503036
-5.7979999 -6.7179999 0.13600001 0.18536718 0.23793977 -0.46359286 0.55307746
-5.7600002 -6.717 0.13600001 0.1973062 0.23092408 -0.47078782 0.56026495
-5.7189999 -6.7119999 0.13600001 0.21600418 0.22245339 -0.46359468 0.5577305
-5.698 -6.7090001 0.13699999 0.22324102 0.21850666 -0.47041005 0.56468338
-5.6589999 -6.7049999 0.13699999 0.25309673 0.20183256 -0.47207674 0.5724079
-5.638 -6.723 0.13699999 0.26282698 0.19630158 -0.46289614 0.56734926
-5.6079998 -6.73 0.13699999 0.27145028 0.1907348 -0.4627336 0.56937456
-5.598 -6.7610002 0.13699999 0.27249339 0.19001475 -0.46342987 0.57019776
-5.5830002 -6.7870002 0.13699999 0.26893026 0.19191381 -0.47200844 0.57614785
-5.5819998 -6.829 0.13600001 0.26768169 0.19278753 -0.47101033 0.57504022
-5.5970001 -6.869 0.13600001 0.26768169 0.19278753 -0.47101033 0.57504022
-5.5939999 -6.9089999 0.13600001 0.27826551 0.18611224 -0.46275178 0.57114679
-5.592 -6.9520001 0.13600001 0.26941478 0.19193052 -0.46327215 0.56924754
-5.5739999 -6.974 0.13600001 0.26897338 0.18359484 -0.46520132 0.5678609
-5.5469999 -6.9850001 0.13600001 0.25668544 0.19137166 -0.46505257 0.56461
-5.5019999 -6.973 0.13600001 0.22279258 0.21380319 -0.46653956 0.55947071
-5.4699998 -6.9780002 0.13600001 0.19179887 0.22825922 -0.47015634 0.55671901
-5.4289999 -6.948 0.13600001 0.16780491 0.23768403 -0.47349524 0.55574268
-5.4219999 -6.9840002 0.13600001 0.14615726 0.24246924 -0.46040028 0.54048282
-5.381 -6.9759998 0.13699999 0.12753989 0.24788083 -0.46683091 0.54373014
-5.349 -6.98 0.13699999 0.090352274 0.25724435 -0.45977554 0.53453881
-5.3140001 -6.98 0.13699999 0.078653224 0.25935692 -0.46297219 0.53646582
-5.2950001 -7.0009999 0.13699999 0.058631085 0.26265174 -0.45940122 0.53242183
-5.2360001 -6.9679999 0.13699999 0.041831974 0.26791519 -0.46300659 0.53656644
-5.23 -6.9829998 0.13699999 0.038624931 0.26816425 -0.46410757 0.53740096
-5.1849999 -6.9689999 0.138 0.01913609 0.26680472 -0.46453774 0.53604686
-5.158 -6.9790001 0.138 0.010525137 0.26614875 -0.46853504 0.5389536
-5.1220002 -6.9749999 0.138 0.012126786 0.26710051 -0.4685213 0.53944594
-5.0949998 -6.9850001 0.138 0.014163281 0.26697224 -0.46988431 0.54061633
-5.0619998 -6.9850001 0.138 0.01443206 0.26699096 -0.4693847 0.5401985
-5.0300002 -6.9879999 0.138 0.012815066 0.26703286 -0.46946767 0.5402506
-5.0100002 -6.9829998 0.138 0.015308974 0.26687902 -0.47093323 0.5415135
-4.9889998 -7 0.138 0.013885415 0.26226783 -0.46811435 0.53675717
-4.9390001 -6.9770002 0.139 0.0099067641 0.26853091 -0.47134316 0.54256004
-4.902 -6.9710002 0.139 0.0088916961 0.2633791 -0.47031549 0.53911436
-4.901 -7.0159998 0.139 0.010358658 0.26340312 -0.46922529 0.53820151
-4.8559999 -6.9980001 0.139 0.0067994292 0.26403937 -0.47200623 0.54088157
-4.8319998 -7.0100002 0.139 0.0060774325 0.26410618 -0.47122321 0.54022247
-4.8049998 -6.9949999 0.139 0.007003604 0.26407695 -0.47129411 0.54028124
-4.7690001 -6.9899998 0.139 0.0070745773 0.26394358 -0.47340921 0.54206324
-4.7529998 -7.013 0.139 0.0070816078 0.26395583 -0.47321516 0.5418998
-4.7020001 -6.9850001 0.14 0.0037832372 0.26240057 -0.4732894 0.54117578
-4.6789999 -6.9980001 0.14 0.0032988414 0.26241928 -0.47318205 0.54108781
-4.6589999 -7.0159998 0.14 0.00097918604 0.26238543 -0.47443005 0.54215401
-4.6170001 -7.0009999 0.14 -0.0024051107 0.26146126 -0.47403803 0.54136848
-4.599 -6.9980001 0.14 -0.0033083726 0.26622969 -0.4772785 0.54651982
-4.5710001 -7.0019999 0.14 -0.0039778766 0.2665835 -0.47194275 0.54204476
-4.5370002 -6.9980001 0.14 -0.0056540444 0.26681024 -0.46824488 0.53895545
-4.5089998 -7.0040002 0.14 -0.010019637 0.26649567 -0.4631246 0.53442001
-4.4770002 -7.0029998 0.14 -0.015168255 0.26666427 -0.45856136 0.53067732
-4.4510002 -7.0100002 0.141 -0.015728757 0.26669568 -0.45746079 0.52975875
-4.4130001 -6.9990001 0.141 -0.018922769 0.26796979 -0.44886985 0.52311569
-4.3889999 -6.9860001 0.141 -0.0066453279 0.26692384 -0.44370946 0.51785189
-4.368 -7.0009999 0.141 -0.013642752 0.26682723 -0.43852606 0.51350558
-4.336 -6.9980001 0.141 -0.0072213025 0.26648197 -0.43211791 0.5077309
-4.309 -7.0050001 0.141 -0.00283984 0.26423538 -0.43149632 0.50598168
-4.2800002 -7.006 0.141 -0.0033457011 0.26386732 -0.41947037 0.49557292
-4.2480001 -7.0019999 0.141 -0.002326136 0.2652697 -0.41954175 0.49637556
-4.2220001 -7.0110002 0.141 -0.0025557631 0.26016706 -0.41180986 0.48711476
-4.2090001 -7.0139999 0.142 -0.0048865834 0.2602722 -0.41369626 0.48878428
-4.1700001 -6.9980001 0.142 -0.0026913711 0.26682913 -0.4194012 0.49709395
-4.1440001 -7.0040002 0.142 -0.00089376327 0.26487431 -0.42027837 0.49678275
-4.1220002 -7.0170002 0.142 -0.0062540127 0.26496896 -0.42268565 0.49890965
-4.098 -7.027 0.142 -0.0034875718 0.26515758 -0.42832735 0.50377077
-4.0609999 -7.0149999 0.142 -0.0034657284 0.26572928 -0.43010044 0.50557929
-4.039 -7.0279999 0.142 -0.005806841 0.26584876 -0.43643701 0.51106411
-4.0139999 -7.0100002 0.142 0.016708262 0.28175646 -0.44690648 0.52857476
-3.99 -7.0190001 0.142 0.019842129 0.28168738 -0.44550511 0.52746212
-3.961 -7.0190001 0.142 0.030240344 0.2901639 -0.45315048 0.5389387
-3.9319999 -7.02 0.14300001 0.034169812 0.29002044 -0.45895717 0.54398632
-3.908 -7.0279999 0.14300001 0.037712738 0.28990594 -0.45726314 0.54273134
-3.8410001 -6.96 0.14300001 0.037471391 0.29709834 -0.47121161 0.55831164
-3.8199999 -6.9720001 0.14300001 0.038353942 0.29601371 -0.46974215 0.55655444
-3.823 -7.0050001 0.14300001 0.03676682 0.29610312 -0.46901679 0.55588275
-3.7869999 -6.9899998 0.14300001 0.039297964 0.29590178 -0.47208747 0.55854166
-3.77 -7.013 0.14300001 0.039735783 0.29586798 -0.47248429 0.55889016
-3.753 -7.033 0.14300001 0.039664477 0.29487365 -0.47216487 0.55808908
-3.7249999 -7.0339999 0.14300001 0.040702693 0.2948668 -0.47074485 0.55695945
-3.6949999 -7.0300002 0.14300001 0.04362784 0.29471344 -0.4707157 0.55707508
-3.668 -7.033 0.14300001 0.046312992 0.29815364 -0.47365376 0.56159449
-3.642 -7.0100002 0.14399999 0.049657159 0.29804039 -0.47060162 0.55924928
-3.6229999 -7.027 0.14399999 0.048410747 0.29928076 -0.46847153 0.55801266
-3.599 -7.0349998 0.14399999 0.050036449 0.29581743 -0.46751514 0.55550158
-3.5699999 -7.0320001 0.14399999 0.049981706 0.29584628 -0.46629876 0.55448872
-3.5320001 -7.013 0.14399999 0.044551417 0.29699263 -0.46576187 0.5541873
-3.51 -7.0240002 0.14399999 0.042659841 0.29644775 -0.46700397 0.55479169
-3.487 -7.033 0.14399999 0.047635123 0.29874694 -0.46572307 0.55535293
-3.4649999 -7.0170002 0.14399999 0.047504332 0.29767022 -0.46692228 0.55577028
-3.444 -7.0300002 0.14399999 0.039788783 0.29798344 -0.46566433 0.5542748
-3.425 -7.046 0.14399999 0.03384329 0.29471651 -0.46292818 0.54982328
-3.3940001 -7.039 0.14399999 0.033933468 0.29472053 -0.46256447 0.54952484
-3.3710001 -7.0469999 0.14399999 0.0264477 0.29916126 -0.46528214 0.55379093
-3.3299999 -7.0180001 0.145 0.025462568 0.29916102 -0.46604368 0.55438471
-3.302 -7.0180001 0.145 0.025204398 0.29917377 -0.46544319 0.55387509
-3.3069999 -7.0560002 0.145 0.025217257 0.29917598 -0.46529523 0.55375254
-3.27 -7.0349998 0.145 0.025768043 0.29573083 -0.46606278 0.55257148
-3.247 -7.0440001 0.145 0.025143199 0.29576319 -0.46470481 0.55141509
-3.214 -7.0300002 0.145 0.024273887 0.29573745 -0.4664807 0.55285996
-3.1960001 -7.0489998 0.145 0.02582944 0.29574448 -0.46532431 0.55195892
-3.1689999 -7.0479999 0.145 0.023325715 0.29574919 -0.46626756 0.55264556
-3.145 -7.0549998 0.145 0.026766853 0.29571575 -0.46618196 0.55271143
-3.1259999 -7.0409999 0.145 0.027027743 0.29571867 -0.46585807 0.5524525
-3.098 -7.0380001 0.145 0.026574638 0.29712439 -0.46544373 0.5528354
-3.073 -7.0409999 0.145 0.022886373 0.29619157 -0.4637433 0.55073684
-3.04 -7.026 0.146 0.025506036 0.30075783 -0.46760353 0.55655986
-3.0209999 -7.0430002 0.146 0.02549414 0.3021273 -0.46751609 0.55722719
-2.9979999 -7.0510001 0.146 0.027837683 0.30211174 -0.46585685 0.55593979
-2.957 -7.0159998 0.146 0.032957353 0.30836236 -0.46931729 0.56252313
-2.951 -7.0320001 0.146 0.032878954 0.30835253 -0.46996519 0.56305379
-2.928 -7.039 0.146 0.037458993 0.30828512 -0.46861801 0.56217945
-2.904 -7.0430002 0.146 0.034087911 0.3069455 -0.4687804 0.56136674
-2.8770001 -7.0409999 0.146 0.036999278 0.30291134 -0.4670977 0.55794668
-2.852 -7.0419998 0.146 0.034914363 0.30342326 -0.46692163 0.55794311
-2.8280001 -7.046 0.146 0.03514101 0.30561116 -0.46541056 0.55788893
-2.8069999 -7.0580001 0.146 0.03518676 0.3033914 -0.46515462 0.55646497
-2.7939999 -7.0570002 0.146 0.037333123 0.30145264 -0.46273047 0.55352229
-2.7709999 -7.0640001 0.146 0.037478775 0.29796413 -0.46017161 0.5494954
-2.7390001 -7.0489998 0.146 0.028249571 0.30154577 -0.46530613 0.55519158
-2.723 -7.072 0.146 0.037289772 0.29773378 -0.47234884 0.55959749
-2.694 -7.0640001 0.146 0.032559991 0.29497641 -0.46955454 0.55547523
-2.6700001 -7.0679998 0.146 0.04096254 0.29507685 -0.46116537 0.54901892
-2.642 -7.0599999 0.147 0.038569037 0.29587483 -0.4622044 0.55014759
-2.6340001 -7.0739999 0.146 0.038017858 0.29586601 -0.463227 0.550964
-2.605 -7.0630002 0.147 0.032632131 0.29578304 -0.46856108 0.55506933
-2.5769999 -7.0560002 0.147 0.037350796 0.29457474 -0.47128221 0.55702448
-2.55 -7.0510001 0.147 0.029810239 0.29792833 -0.47435471 0.56094772
-2.526 -7.053 0.147 0.02858961 0.29805428 -0.47061476 0.55779201
-2.3840001 -7.0370002 0.147 0.016464058 0.29672554 -0.47492427 0.56024116
-2.365 -7.0560002 0.147 0.014101118 0.29672998 -0.47375521 0.55918825
-2.345 -7.0689998 0.147 -0.0029094238 0.29591224 -0.47915691 0.563173
-2.326 -7.0500002 0.147 -0.019527759 0.29473028 -0.47987103 0.56349224
-2.3010001 -7.0479999 0.148 -0.04423143 0.29176089 -0.48423404 0.56706566
-2.283 -7.0669999 0.147 -0.069134146 0.28834158 -0.48134974 0.56534767
-2.256 -7.0599999 0.148 -0.091357991 0.27804929 -0.46900564 0.55283266
-2.233 -7.0650001 0.148 -0.11026968 0.27327591 -0.46988142 0.55464196
-2.21 -7.0710001 0.148 -0.11620197 0.27120656 -0.47947767 0.56298733
-2.1889999 -7.079 0.148 -0.14553003 0.26196021 -0.47125685 0.55846679
-2.1760001 -7.0770001 0.148 -0.1681848 0.25318465 -0.47857705 0.56694317
-2.1470001 -7.0630002 0.148 -0.19868241 0.23974109 -0.47922027 0.57149154
-2.1229999 -7.0640001 0.148 -0.23297516 0.221412 -0.48228109 0.57956511
-2.0420001 -6.875 0.149 -0.25416431 0.20996846 -0.46435383 0.56948286
-2.007 -6.835 0.15000001 -0.24717854 0.21449579 -0.4513402 0.55750662
-1.975 -6.8070002 0.15000001 -0.24422665 0.21101242 -0.45002407 0.55380011
-1.957 -6.823 0.15000001 -0.23692505 0.21691631 -0.45001775 0.55290335
-1.947 -6.8280001 0.15000001 -0.22448878 0.22545357 -0.44492087 0.54697269
-1.921 -6.8189998 0.15000001 -0.20980316 0.23319016 -0.44523725 0.54463863
-1.9 -6.829 0.15000001 -0.19033735 0.24250479 -0.44507095 0.54141021
-1.876 -6.8249998 0.15000001 -0.15773225 0.25591546 -0.44695374 0.53864628
-1.852 -6.8189998 0.15000001 -0.13353129 0.26419806 -0.45186719 0.54019922
-1.8279999 -6.8150001 0.15000001 -0.093369611 0.27494752 -0.45313576 0.53818774
-1.7920001 -6.7670002 0.15099999 -0.01974705 0.29013494 -0.44320825 0.53009599
-1.763 -6.704 0.15099999 0.0096428366 0.29494801 -0.44627857 0.53502512
-1.699 -6.5450001 0.153 0.042888679 0.29987568 -0.44722086 0.54015863
-1.715 -6.6900001 0.152 0.019968353 0.29439601 -0.44575495 0.5345701
-1.717 -6.7839999 0.15099999 0.015621462 0.29453516 -0.44870815 0.5369674
-1.7 -6.809 0.15099999 0.018995658 0.29404995 -0.45003781 0.53792214
-1.684 -6.8340001 0.15099999 0.024875185 0.29402083 -0.45551136 0.54273164
-1.664 -6.8449998 0.15000001 0.025849121 0.29400107 -0.45733175 0.54429507
-1.651 -6.8400002 0.15099999 0.025542209 0.29400811 -0.4568342 0.5438664
-1.625 -6.8270001 0.15099999 0.036749661 0.29427204 -0.45840779 0.54597098
-1.6 -6.8189998 0.15099999 0.042580836 0.29342419 -0.4590418 0.5464707
-1.571 -6.789 0.15099999 0.047537662 0.29312009 -0.45710707 0.5450927
-1.559 -6.836 0.15099999 0.049756788 0.29292631 -0.46181387 0.54913896
-1.529 -6.8000002 0.15099999 0.048770156 0.29252252 -0.46099558 0.54814678
-1.516 -6.8460002 0.15099999 0.044298328 0.29287824 -0.45877069 0.54608655
-1.493 -6.7940001 0.15099999 0.047886986 0.29262173 -0.4558177 0.54377425
-1.4809999 -6.8379998 0.15099999 0.047731739 0.29263386 -0.45546511 0.54347157
-1.455 -6.8249998 0.15099999 0.045264732 0.28984454 -0.45728737 0.54329598
-1.429 -6.8039999 0.15099999 0.044845387 0.28987545 -0.45786926 0.54376757
-1.4119999 -6.8340001 0.15099999 0.043173898 0.29001221 -0.4574551 0.54335642
-1.39 -6.8340001 0.15099999 0.019993601 0.29129758 -0.45640239 0.54180914
-1.367 -6.8309999 0.15099999 0.011594962 0.29149589 -0.45628074 0.54156846
-1.352 -6.8109999 0.15099999 0.014557123 0.29144332 -0.4559603 0.54134178
-1.331 -6.8150001 0.15099999 0.0079349633 0.29151851 -0.45922941 0.54400152
-1.308 -6.8140001 0.15099999 0.0038067652 0.29055178 -0.45947266 0.54364502
-1.29 -6.835 0.15099999 0.008983721 0.29048872 -0.46041957 0.54447275
-1.265 -6.822 0.15099999 0.011999897 0.29026836 -0.46081275 0.54474592
-1.2460001 -6.8369999 0.15099999 0.015709162 0.29018059 -0.46033147 0.54438645
-1.223 -6.835 0.15099999 0.021336159 0.29469731 -0.46494311 0.5508846
-1.21 -6.822 0.15099999 0.021995192 0.29470229 -0.46343243 0.54963881
-1.188 -6.8249998 0.15099999 0.029754903 0.29166031 -0.46308085 0.54808301
-1.168 -6.835 0.15099999 0.031176718 0.29161406 -0.46248192 0.5476315
-1.148 -6.8449998 0.15099999 0.030540984 0.29049578 -0.46175179 0.5463838
-1.126 -6.848 0.15099999 0.030278914 0.29053092 -0.45997921 0.5448907
-1.098 -6.8140001 0.152 0.030215148 0.29051438 -0.46144399 0.54611546
-1.08 -6.8390002 0.15099999 0.033136167 0.28985012 -0.45982784 0.54456657
-1.068 -6.8309999 0.15099999 0.029854257 0.28999543 -0.45987636 0.54449505
-1.046 -6.8319998 0.152 0.030444011 0.28994632 -0.4616515 0.54600167
-1.026 -6.8460002 0.15099999 0.031241827 0.28989094 -0.46289754 0.54707128
-1.003 -6.8390002 0.152 0.029619344 0.29000828 -0.45959905 0.5442549
-0.98100001 -6.8379998 0.152 0.022480823 0.29226688 -0.46234295 0.54743612
-0.95999998 -6.8429999 0.152 0.02177814 0.29231307 -0.46080029 0.54613012
-0.93599999 -6.8280001 0.152 0.022309039 0.2922903 -0.46108299 0.54637796
