# .PCD v0.7 - Point Cloud Data file format
VERSION 0.7
FIELDS x y z normal_x normal_y normal_z curvature
SIZE 4 4 4 4 4 4 4
TYPE F F F F F F F
COUNT 1 1 1 1 1 1 1
WIDTH 667
HEIGHT 1
VIEWPOINT 0 0 0 1 0 0 0
POINTS 667
DATA ascii
8.9099998 4.802 -0.54400003 0.051211197 -0.26458398 -0.085854381 0.2828396
8.8559999 4.809 -0.54100001 0.048783939 -0.27131212 -0.088881046 0.28963768
8.8310003 4.8309999 -0.54000002 0.035191096 -0.25614926 -0.083372653 0.27166498
8.8070002 4.8540001 -0.53899997 0.038344227 -0.23919007 -0.074224502 0.25336033
8.7690001 4.869 -0.537 0.035095885 -0.23764351 -0.073780894 0.25129619
8.7250004 4.862 -0.53399998 0.038659446 -0.23630513 -0.073293209 0.25041279
9.9230003 4.7410002 -0.68099999 0.05048535 0.45234901 -0.74512792 0.87314606
9.9399996 4.6869998 -0.74400002 0.059987716 0.45992938 -0.74298936 0.87588054
9.8529997 4.684 -0.73699999 0.062566921 0.45288709 -0.74592686 0.87488753
9.684 4.678 -0.72299999 0.082235105 0.4523465 -0.74437594 0.87491459
9.448 4.6919999 -0.70599997 0.10200754 0.44592083 -0.75136298 0.87965745
8.8000002 4.7010002 -0.65700001 0.16797666 0.37812501 -0.83164036 0.92888123
10.063 4.6370001 -0.88800001 0.012370139 0.47003379 -0.70056713 0.84372926
9.9849997 4.6389999 -0.88099998 0.022297792 0.455908 -0.7262522 0.8577829
9.7159996 4.6069999 -0.85600001 0.071069762 0.47206688 -0.70224911 0.84914774
9.6929998 4.6329999 -0.85500002 0.078541137 0.47115493 -0.71353817 0.8586573
9.4020004 4.6209998 -0.829 0.091452502 0.45085648 -0.73665267 0.86849999
8.8109999 4.5900002 -0.77600002 0.10418656 0.45257756 -0.74695468 0.87955815
8.7690001 4.6030002 -0.77200001 0.12800038 0.44303188 -0.75716335 0.88654256
8.7279997 4.6160002 -0.76899999 0.11582959 0.4329415 -0.759018 0.88145512
8.1160002 4.6230001 -0.71700001 0.19461539 -0.38124338 -0.20465273 0.47445166
8.0819998 4.6370001 -0.71499997 -0.0035669655 0.40257242 -0.79249454 0.88888967
8.0539999 4.6550002 -0.713 0.10372101 -0.34105942 -0.1394493 0.38278672
7.8969998 4.5960002 -0.69700003 0.19975336 0.38864237 -0.79556882 0.90767503
8.0190001 4.7020001 -0.713 0.078533225 -0.33339125 -0.1355077 0.36834705
10.283 4.6609998 -0.97799999 0.028502338 0.5109759 -0.5745008 0.76938933
10.105 4.619 -0.95899999 0.023583665 0.50492156 -0.63468146 0.81137079
9.9130001 4.6079998 -0.94099998 0.059416376 0.49124104 -0.67509723 0.83702111
9.823 4.6040001 -0.93199998 0.078783497 0.48976865 -0.68123692 0.84271222
9.7110004 4.5890002 -0.921 0.071427599 0.4883725 -0.68156493 0.84151077
9.6820002 4.5939999 -0.91799998 0.069471419 0.48791033 -0.68165171 0.84114915
9.6859999 4.6329999 -0.92000002 0.070760921 0.4913654 -0.68363023 0.84486526
9.3859997 4.599 -0.89099997 0.095095284 0.47455284 -0.72014517 0.86767077
8.8070002 4.5770001 -0.83600003 0.061836515 0.4714331 -0.70943421 0.8540315
8.7449999 4.5799999 -0.82999998 0.070750698 0.46973753 -0.71005201 0.85430259
8.7159996 4.5830002 -0.82800001 0.075715147 0.4740088 -0.70176101 0.85022682
8.7229996 4.6209998 -0.82999998 0.08239539 0.45439339 -0.73123318 0.86484933
8.7080002 4.6490002 -0.82999998 0.11817093 0.44377276 -0.75833356 0.88654858
8.033 4.6030002 -0.76599997 0.037106484 0.40820065 -0.77561712 0.8772608
7.9949999 4.6149998 -0.76300001 0.075034492 0.41725063 -0.78056508 0.88826239
8.0030003 4.6360002 -0.76499999 0.053961527 0.40401801 -0.80694401 0.90404701
7.8249998 4.5669999 -0.745 0.23247921 0.38593107 -0.7772187 0.89836425
7.9749999 4.6869998 -0.76499999 0.10919808 0.38107881 -0.83398151 0.92340153
7.9590001 4.711 -0.76499999 0.10919808 0.38107881 -0.83398151 0.92340153
9.493 4.5869999 -0.97000003 0.081892624 0.50897664 -0.62196285 0.80783749
9.4390001 4.598 -0.96499997 0.078071401 0.50679022 -0.62899387 0.81152004
8.7770004 4.6030002 -0.89899999 0.079876386 0.49910423 -0.66009212 0.83138853
9.1820002 4.546 -1 0.086614206 0.51913631 -0.58023852 0.78337812
9.0469999 4.5500002 -0.986 0.096118994 0.52315849 -0.59878635 0.80092371
8.724 4.5450001 -0.95200002 0.076589599 0.51380295 -0.62129509 0.80985618
10.337 4.6199999 -1.191 0.052145835 0.53247529 -0.53067935 0.75357127
9.6680002 4.5219998 -1.1109999 0.040402267 0.51564562 -0.56170619 0.76356834
9.5570002 4.506 -1.098 0.065760136 0.52084178 -0.57818723 0.78096157
9.5360003 4.533 -1.097 0.06105461 0.51077354 -0.57954401 0.77491194
8.842 4.5469999 -1.021 0.077413052 0.51793754 -0.61406761 0.80705082
8.7819996 4.5510001 -1.015 0.069453284 0.51742023 -0.61522377 0.80687529
8.7410002 4.5650001 -1.011 0.06993331 0.51205277 -0.61726302 0.80504805
8.0740004 4.46 -0.93300003 0.078484342 0.47403586 -0.72009271 0.86568081
8.0010004 4.4689999 -0.926 0.093438767 0.48971319 -0.68594766 0.84798235
8.0030003 4.5029998 -0.92799997 0.097378694 0.47536254 -0.71069336 0.86054474
7.9790001 4.5560002 -0.92900002 0.088825129 0.4669961 -0.71237463 0.85641867
7.9130001 4.5840001 -0.92299998 0.16732411 0.45184523 -0.72078669 0.86700344
7.8699999 4.5749998 -0.91799998 0.20845082 0.42857069 -0.74297363 0.8826859
7.8060002 4.5710001 -0.91100001 0.25693879 0.39231166 -0.76730353 0.89926678
7.848 4.6620002 -0.921 0.27537337 0.38735297 -0.76062131 0.89689332
10.236 4.566 -1.234 0.045898233 0.5276767 -0.53855634 0.75537556
8.8000002 4.507 -1.0650001 0.084830612 0.52464318 -0.58282769 0.78875524
8.5500002 4.4980001 -1.036 0.1061624 0.52707946 -0.59688318 0.80333847
8.4879999 4.5 -1.03 0.097047798 0.52388436 -0.59973657 0.80222005
8.4560003 4.5180001 -1.027 0.096646853 0.52154481 -0.60080451 0.80144602
8.0200005 4.4000001 -0.97100002 0.090100557 0.51845938 -0.63383836 0.82381386
7.973 4.4070001 -0.96600002 0.094173171 0.50555724 -0.64152092 0.82219571
7.934 4.4180002 -0.96200001 0.093634233 0.50971085 -0.64010632 0.82359493
7.9120002 4.4380002 -0.96100003 0.093676604 0.50970995 -0.64010352 0.82359701
7.9439998 4.506 -0.96899998 0.087747872 0.49946266 -0.65543091 0.82870519
7.8940001 4.5100002 -0.96399999 0.093040325 0.49785244 -0.65545911 0.82833576
7.8369999 4.5100002 -0.95700002 0.1894179 0.46277338 -0.69231683 0.85401458
7.8049998 4.5250001 -0.95499998 0.19225231 0.45752838 -0.70210767 0.85979551
7.7410002 4.5209999 -0.94700003 0.21425092 0.45978272 -0.69130248 0.85743964
7.756 4.5619998 -0.95200002 0.20731641 0.45060602 -0.70176953 0.85936391
10.357 4.6090002 -1.33 0.046867773 0.52955836 -0.53354502 0.75319248
10.283 4.6149998 -1.321 0.048428264 0.52957922 -0.53212178 0.75229853
10.182 4.5879998 -1.307 0.055822585 0.52591741 -0.52508402 0.74526405
9.7200003 4.526 -1.247 0.044359643 0.52782679 -0.51339304 0.73765934
9.6660004 4.5380001 -1.2410001 0.050986726 0.5276283 -0.5273155 0.74769843
8.79 4.5019999 -1.133 0.069798127 0.52534544 -0.57662797 0.78317267
8.7019997 4.4910002 -1.122 0.073320411 0.52333421 -0.57818657 0.783297
8.7139997 4.5320001 -1.126 0.075974025 0.52371305 -0.57762349 0.78338772
8.2629995 4.5469999 -1.073 0.053060308 0.53270805 -0.54511261 0.7640295
8.2159996 4.5380001 -1.067 0.052800879 0.52748775 -0.57756126 0.78396958
8.1020002 4.507 -1.051 0.078570701 0.51965559 -0.61112243 0.80603099
8.0030003 4.4850001 -1.038 0.076233901 0.52026474 -0.61000425 0.80535221
7.9899998 4.5110002 -1.039 0.076215297 0.51113176 -0.61055052 0.79989773
7.9640002 4.5289998 -1.0369999 0.066311754 0.50815046 -0.6224556 0.80626619
7.9120002 4.533 -1.031 0.12956713 0.50225675 -0.6375615 0.82190889
7.8959999 4.5560002 -1.03 0.13065413 0.49995106 -0.63664353 0.81996131
7.8109999 4.5560002 -1.021 0.19009905 0.48269832 -0.62916124 0.81546253
7.7659998 4.5630002 -1.016 0.20235625 0.47678581 -0.63883412 0.82242435
7.777 4.6020002 -1.02 0.20805791 0.47765061 -0.64713615 0.83079684
10.268 4.5689998 -1.393 0.046796132 0.53799087 -0.4780345 0.72120804
10.129 4.546 -1.373 0.054033693 0.53496599 -0.48893857 0.72675246
10.019 4.5349998 -1.359 0.048505384 0.53399116 -0.48742676 0.72462696
10.075 4.598 -1.37 0.046915844 0.52999073 -0.48105329 0.71728903
10.131 4.6430001 -1.3789999 0.058652494 0.53726155 -0.48918229 0.72896463
10.1 4.6669998 -1.377 0.051991019 0.52629876 -0.48991919 0.7209121
10.242 4.5679998 -1.4400001 0.049200136 0.53834075 -0.48682612 0.72748268
10.129 4.5929999 -1.426 0.052813116 0.53061634 -0.48948982 0.72383922
10.138 4.6360002 -1.4299999 0.058845017 0.53727782 -0.48916566 0.72898096
10.098 4.6370001 -1.425 0.057712656 0.53684956 -0.48735508 0.72736043
9.8479996 4.559 -1.387 0.045498397 0.52709144 -0.46259496 0.7027728
9.7709999 4.5599999 -1.377 0.041997947 0.52478147 -0.45253861 0.69422662
9.5649996 4.5 -1.346 0.05912251 0.52845162 -0.4569864 0.70113707
9.5159998 4.513 -1.34 0.061378349 0.5281921 -0.4750644 0.71305007
7.7789998 4.5300002 -1.117 0.1587635 0.51163465 -0.56292695 0.77708596
7.434 4.5819998 -1.077 0.10837354 0.45939323 -0.71467602 0.85647464
10.299 4.5900002 -1.53 0.051115137 0.53815377 -0.48575881 0.72676259
10.151 4.5619998 -1.507 0.048347969 0.53443098 -0.48746851 0.72496867
10.169 4.6090002 -1.513 0.047127392 0.53008127 -0.48801976 0.72205985
9.9639997 4.5539999 -1.4809999 0.059580695 0.52999294 -0.46064568 0.70472467
9.9099998 4.5669999 -1.474 0.054675192 0.52903104 -0.45599812 0.70056945
9.8290005 4.5679998 -1.4630001 0.051420473 0.52674437 -0.44978058 0.69455475
9.743 4.546 -1.45 0.053455476 0.52480358 -0.4345904 0.68348014
9.6289997 4.5300002 -1.433 0.071198754 0.5261451 -0.42685577 0.68125165
9.507 4.5100002 -1.414 0.057458792 0.52303874 -0.4193939 0.67287612
9.4049997 4.4980001 -1.4 0.076720975 0.53711241 -0.41136527 0.68087977
9.3389997 4.5029998 -1.391 0.080662325 0.53526425 -0.3981404 0.67195982
9.2749996 4.5079999 -1.382 0.10052831 0.54107422 -0.41769648 0.69089621
9.2060003 4.5100002 -1.373 0.10617422 0.53984725 -0.40708819 0.68441862
9.1280003 4.4899998 -1.3609999 0.10309594 0.54932201 -0.43281573 0.70690376
9.0570002 4.4910002 -1.351 0.091282368 0.54638928 -0.45535022 0.71708965
8.9770002 4.487 -1.34 0.088676907 0.54948962 -0.45926747 0.72161555
8.9239998 4.4949999 -1.3329999 0.089147709 0.54999429 -0.47173786 0.73005319
8.8450003 4.4899998 -1.322 0.081804454 0.54601228 -0.4831754 0.7336756
8.7729998 4.4889998 -1.312 0.083718069 0.53372753 -0.47691786 0.72064173
8.7180004 4.4780002 -1.304 0.080782115 0.53162062 -0.48909089 0.72688109
8.6339998 4.4689999 -1.2920001 0.074184857 0.53357065 -0.50192523 0.73629475
8.5830002 4.4770002 -1.285 0.092319109 0.53883296 -0.5012095 0.74167025
8.5209999 4.48 -1.277 0.092963956 0.54011369 -0.50494796 0.74520975
7.75 4.4899998 -1.175 0.13710776 0.52976125 -0.5527277 0.77778751
7.553 4.52 -1.151 0.08757142 0.52416688 -0.5829103 0.78879911
7.4619999 4.5300002 -1.14 0.087217078 0.49462974 -0.65550661 0.82580525
7.3829999 4.5450001 -1.131 0.054380108 0.46462455 -0.72673064 0.86427462
7.3499999 4.5570002 -1.127 0.034436837 0.43051103 -0.77053928 0.88332129
7.309 4.5479999 -1.1210001 0.069803417 0.45185879 -0.73634547 0.86674881
7.2750001 4.5580001 -1.118 0.12572652 0.42631578 -0.75729537 0.87809372
7.277 4.592 -1.1210001 0.092573166 0.38516065 -0.8187539 0.90954739
7.2360001 4.598 -1.1160001 0.14324814 0.38941842 -0.81249273 0.9123109
7.2249999 4.6220002 -1.1160001 0.12422627 0.36166799 -0.84671021 0.92906088
7.1999998 4.6389999 -1.115 0.12960775 0.36474621 -0.85022032 0.93419087
7.1830001 4.6589999 -1.114 -0.024228875 -0.28630316 -0.10705063 0.3066209
7.1750002 4.6700001 -1.114 -0.032623779 -0.27323872 -0.099129289 0.29248986
7.1160002 4.7280002 -1.1109999 -0.085943162 -0.22664864 -0.086157084 0.25725257
6.8330002 5.323 -1.1289999 -0.24685383 0.040051922 -0.10731426 0.27213475
6.7480001 5.6589999 -1.152 0.49840912 -0.0059507117 -0.73344767 0.88678777
6.7360001 5.7030001 -1.155 0.49672517 -0.009725295 -0.73905921 0.89052737
6.7360001 5.7399998 -1.158 0.51501042 -0.036850244 -0.69904584 0.86905622
6.7480001 5.7870002 -1.164 0.51257288 -0.054075062 -0.69587684 0.86596745
6.7360001 5.8130002 -1.165 0.51257288 -0.054075062 -0.69587684 0.86596745
6.7519999 5.8639998 -1.1720001 0.49742779 -0.070854887 -0.71359801 0.87274104
9.9989996 4.5970001 -1.622 0.1326859 0.52552658 -0.56293041 0.78145659
9.9289999 4.5830002 -1.6109999 0.14740744 0.52639711 -0.54162085 0.76952976
9.7950001 4.5580001 -1.59 0.067991957 0.52492499 -0.42806754 0.68074298
9.7340002 4.5669999 -1.582 0.084701248 0.52379763 -0.42134234 0.67754531
9.6639996 4.5710001 -1.572 0.070165202 0.52260619 -0.42389956 0.67655838
9.5790005 4.5669999 -1.5599999 0.069253653 0.52161211 -0.41974264 0.67309666
9.4910002 4.5619998 -1.5470001 0.065821432 0.52026051 -0.42011762 0.67193919
9.3649998 4.5380001 -1.527 0.099034615 0.5120157 -0.33030659 0.61730897
9.2910004 4.5370002 -1.517 0.09338294 0.50781459 -0.32096303 0.60795832
9.2200003 4.52 -1.505 0.10008955 0.51751965 -0.31765917 0.61542821
9.1420002 4.5180001 -1.494 0.10571872 0.52669287 -0.35006377 0.64119142
9.0620003 4.5139999 -1.482 0.10112467 0.52212411 -0.35600168 0.63998204
8.9899998 4.513 -1.472 0.091757536 0.52502108 -0.37537295 0.65189832
8.9069996 4.506 -1.46 0.085093841 0.53125709 -0.39373079 0.66670758
8.8330002 4.5029998 -1.449 0.079056755 0.53395122 -0.40931436 0.67741579
8.7609997 4.5009999 -1.439 0.080995463 0.5401215 -0.40895823 0.68230367
8.7010002 4.4879999 -1.429 0.070452012 0.53974414 -0.41225711 0.68281996
8.6190004 4.4790001 -1.4170001 0.074511468 0.54254907 -0.43168539 0.69732612
8.5539999 4.4790001 -1.408 0.074480906 0.53864014 -0.44031429 0.69968373
8.4890003 4.4790001 -1.399 0.075910568 0.53792709 -0.43261659 0.69446748
8.4280005 4.4809999 -1.39 0.087221935 0.53258836 -0.46181154 0.71030128
8.3859997 4.4920001 -1.385 0.086560927 0.53250122 -0.4590044 0.70833284
8.3199997 4.4899998 -1.376 0.077704601 0.53325367 -0.4633145 0.71067417
8.2519999 4.4699998 -1.365 0.068459824 0.53285992 -0.46050668 0.70759654
8.1859999 4.4679999 -1.3559999 0.063199103 0.52966517 -0.45508289 0.70117033
8.1129999 4.461 -1.345 0.058348551 0.53306013 -0.461438 0.70744801
8.0559998 4.4619999 -1.337 0.059871756 0.53313172 -0.46673682 0.71109587
8.0059996 4.467 -1.331 0.079644464 0.53353494 -0.47256821 0.7171635
7.9400001 4.4629998 -1.321 0.095475823 0.53166485 -0.48307389 0.72466791
7.8870001 4.4660001 -1.314 0.10721642 0.53093266 -0.48608029 0.72777671
7.8200002 4.4439998 -1.303 0.10967826 0.5369615 -0.49594966 0.7391367
7.7750001 4.4510002 -1.2970001 0.10498342 0.53718489 -0.50333059 0.74359316
7.7389998 4.4619999 -1.293 0.10551167 0.53700352 -0.50897342 0.74736834
7.6859999 4.4629998 -1.286 0.10028641 0.53952408 -0.5152632 0.75275481
7.6290002 4.4619999 -1.278 0.072979987 0.54092228 -0.52812225 0.75949728
7.5960002 4.4749999 -1.275 0.079379134 0.53913355 -0.55432713 0.77733171
7.5469999 4.4619999 -1.267 0.079932563 0.53062874 -0.54089612 0.7619217
7.4359999 4.4590001 -1.251 0.073093854 0.526761 -0.55336452 0.76748431
7.3959999 4.467 -1.247 0.057744827 0.52449483 -0.55886692 0.76861012
7.3670001 4.4809999 -1.244 0.074151509 0.51987791 -0.58115381 0.78326958
7.3140001 4.48 -1.237 0.061403021 0.51058662 -0.58703136 0.78043252
7.2919998 4.4980001 -1.235 0.0652242 0.50927138 -0.58490288 0.77828205
7.2529998 4.4899998 -1.229 0.075753719 0.50807172 -0.58985591 0.78217995
7.2270002 4.5050001 -1.227 0.09046419 0.50170815 -0.61594057 0.79954839
7.171 4.5019999 -1.219 0.10240895 0.48807484 -0.63791418 0.80971551
7.1420002 4.5139999 -1.216 0.12818643 0.47128913 -0.67716849 0.83492655
7.1090002 4.5250001 -1.2130001 0.14456414 0.46062157 -0.685467 0.83841282
7.0700002 4.5310001 -1.2079999 0.1782535 0.4382264 -0.71782053 0.85969937
7.0289998 4.5359998 -1.2029999 0.19895433 0.40981653 -0.75412464 0.88104278
7.0089998 4.539 -1.201 0.21077314 0.38727516 -0.78083539 0.8967225
6.9720001 4.546 -1.196 0.2409566 0.36118993 -0.79871249 0.90909845
6.941 4.5570002 -1.193 0.24196494 0.3518191 -0.8088237 0.91461438
6.9349999 4.5840001 -1.1950001 0.25744933 0.33141875 -0.82182944 0.92277962
6.8860002 4.5830002 -1.188 0.27354631 0.30261096 -0.83885312 0.93277842
6.8649998 4.5999999 -1.187 0.27889708 0.28589681 -0.84879351 0.93806767
6.8369999 4.612 -1.184 0.30185828 0.27122447 -0.85056722 0.94241482
6.8249998 4.6199999 -1.183 0.31526038 0.25510719 -0.85393608 0.94534421
6.8119998 4.6420002 -1.184 0.31910047 0.25109959 -0.85387766 0.94550681
6.796 4.6630001 -1.183 0.33317292 0.22794566 -0.86094499 0.95088887
6.7670002 4.6739998 -1.181 0.35329306 0.21130669 -0.85461938 0.9485994
6.7519999 4.6950002 -1.181 0.35404772 0.20683171 -0.85637569 0.94947797
6.7389998 4.717 -1.181 0.36674565 0.1947889 -0.85354429 0.94920123
6.7259998 4.7399998 -1.181 0.37013319 0.18593352 -0.85335124 0.94856638
6.7119999 4.7459998 -1.1799999 0.38328403 0.17744134 -0.84644163 0.94596803
6.711 4.777 -1.183 0.39593661 0.16510957 -0.83967602 0.94291186
6.7059999 4.8049998 -1.1849999 0.3976019 0.14852111 -0.84471232 0.94534898
6.697 4.8309999 -1.186 0.39530301 0.14476675 -0.84822714 0.94694835
6.6830001 4.8530002 -1.186 0.40839124 0.12922394 -0.84114933 0.94393557
6.671 4.8759999 -1.187 0.40721262 0.13286996 -0.84040892 0.94327283
6.6589999 4.8990002 -1.187 0.40875837 0.12686282 -0.84060717 0.94329107
6.6630001 4.9180002 -1.1900001 0.40979505 0.1227681 -0.83993858 0.94260323
6.6529999 4.9439998 -1.191 0.41045913 0.12777954 -0.83821869 0.94202697
6.6469998 4.9720001 -1.193 0.42484516 0.12850468 -0.82260048 0.9347077
6.6269999 4.9889998 -1.192 0.42960453 0.12687296 -0.81766248 0.93232435
6.6290002 5.0229998 -1.1950001 0.43565109 0.11267222 -0.81435055 0.93040514
6.631 5.0580001 -1.199 0.44201446 0.10961846 -0.81156325 0.93060619
6.6279998 5.0890002 -1.202 0.44315469 0.10705152 -0.81108427 0.93043208
6.6220002 5.0999999 -1.202 0.44451997 0.090124264 -0.81251585 0.93053877
6.6129999 5.1269999 -1.2029999 0.43979228 0.10371841 -0.8161881 0.93291897
6.6100001 5.158 -1.206 0.45445132 0.10690361 -0.79754341 0.92413735
6.6040001 5.1869998 -1.2079999 0.47159374 0.088880256 -0.77772629 0.9138701
6.5960002 5.2140002 -1.21 0.47093764 0.082298182 -0.77953815 0.91445887
6.6090002 5.2579999 -1.216 0.47462061 0.079892635 -0.77628285 0.91337979
6.6100001 5.2940001 -1.219 0.48442656 0.053539377 -0.76580942 0.90774429
6.6139998 5.3140001 -1.222 0.48341 0.048765093 -0.76741761 0.90829128
6.6100001 5.3449998 -1.224 0.48833042 0.055677295 -0.76278228 0.90741575
6.619 5.3870001 -1.23 0.48218518 0.044306487 -0.77443457 0.9133535
6.6329999 5.4330001 -1.2359999 0.4912985 0.019210596 -0.75662249 0.90234184
6.638 5.4720001 -1.2410001 0.50399238 0.0086596534 -0.72957826 0.88677377
6.6290002 5.5 -1.242 0.50777811 3.4395605e-05 -0.72062612 0.8815558
6.6420002 5.546 -1.249 0.51504982 -0.013558831 -0.7023474 0.87106371
6.6389999 5.5609999 -1.25 0.51420754 -0.011367012 -0.70481229 0.8725245
6.6609998 5.6149998 -1.258 0.523229 -0.016898267 -0.67821872 0.8567583
6.6350002 5.6300001 -1.256 0.52737617 -0.026007701 -0.67266816 0.85515171
6.757 5.77 -1.286 0.53463525 -0.053637199 -0.63060474 0.82847697
6.7610002 5.8109999 -1.29 0.52831626 -0.079594463 -0.62902606 0.82530427
6.7519999 5.8400002 -1.2920001 0.52615356 -0.082740434 -0.62971163 0.82475471
6.7620001 5.8860002 -1.298 0.53165829 -0.078666642 -0.61981809 0.82038009
6.7389998 5.8850002 -1.295 0.53046292 -0.085606188 -0.62268162 0.82246685
6.7220001 5.9070001 -1.296 0.53290248 -0.080751508 -0.61987436 0.82143176
6.7399998 5.961 -1.304 0.51988786 -0.100297 -0.63764012 0.82881105
6.7189999 5.98 -1.303 0.5183714 -0.10027 -0.63784564 0.82801574
10.018 4.5679998 -1.732 0.21049203 0.51009846 -0.58326364 0.80293447
9.8290005 4.52 -1.699 0.16634186 0.52332383 -0.55620867 0.78160447
9.842 4.5630002 -1.704 0.14749895 0.52691174 -0.506769 0.74579269
9.7740002 4.5689998 -1.694 0.11121635 0.52839422 -0.46551365 0.71293235
9.7220001 4.5819998 -1.687 0.082700439 0.52555352 -0.43525675 0.68738222
9.6160002 4.5700002 -1.67 0.081447452 0.52280271 -0.42555708 0.67901045
9.5539999 4.559 -1.66 0.11411067 0.51845759 -0.39721411 0.66302228
9.5410004 4.5890002 -1.66 0.11441892 0.51295614 -0.37475556 0.64549011
9.4169998 4.566 -1.64 0.11238393 0.51196039 -0.35613662 0.63369304
9.3280001 4.5599999 -1.626 0.1081759 0.51398891 -0.36587143 0.64011604
9.2600002 4.5630002 -1.6160001 0.10413957 0.50969911 -0.31019723 0.60569012
9.177 4.5580001 -1.603 0.10302519 0.51346487 -0.30965525 0.60839689
9.085 4.5479999 -1.5880001 0.09355621 0.51233214 -0.31399709 0.60813743
9.007 4.527 -1.575 0.073628239 0.53507167 -0.44472426 0.69964457
8.9329996 4.5250001 -1.564 0.071667448 0.53398114 -0.43470204 0.69227016
8.8310003 4.5089998 -1.5470001 0.086464673 0.53544486 -0.4173466 0.68436503
8.7410002 4.4980001 -1.533 0.080701195 0.53768784 -0.39770815 0.67364132
8.6590004 4.4899998 -1.52 0.071311928 0.52924472 -0.36162823 0.64494985
8.6199999 4.5050001 -1.515 0.067148075 0.5231514 -0.34103775 0.62809473
8.552 4.4860001 -1.503 0.075556323 0.53066707 -0.33960146 0.63454348
8.4779997 4.4819999 -1.492 0.07276646 0.53339559 -0.37078759 0.65367365
8.4139996 4.4819999 -1.482 0.072419018 0.51864129 -0.37088662 0.64170879
8.3540001 4.4840002 -1.474 0.075107552 0.5196088 -0.37218332 0.64354867
8.2930002 4.4850001 -1.465 0.077534661 0.53229374 -0.4145115 0.67909354
8.217 4.4770002 -1.4529999 0.066564687 0.5282889 -0.43897557 0.69008666
8.1450005 4.4720001 -1.442 0.055868942 0.53206766 -0.44948918 0.69875449
8.0880003 4.4569998 -1.432 0.05890144 0.52900684 -0.42446026 0.68079668
8.0270004 4.4569998 -1.423 0.071964182 0.52966207 -0.42758539 0.68450713
7.9819999 4.4650002 -1.4170001 0.080486566 0.52963215 -0.44180188 0.69438982
7.934 4.4710002 -1.411 0.08739613 0.53028899 -0.45095053 0.70157033
7.8940001 4.4809999 -1.406 0.088438474 0.53028423 -0.45138359 0.7019757
7.8340001 4.4790001 -1.397 0.094298698 0.53359646 -0.48728216 0.72873956
7.7270002 4.467 -1.38 0.08977811 0.53797191 -0.50018144 0.74003738
7.6789999 4.4720001 -1.373 0.079480469 0.53929013 -0.51730955 0.75150526
7.6199999 4.4699998 -1.365 0.069648474 0.54466188 -0.51665461 0.75394928
7.5419998 4.4559999 -1.352 0.073553383 0.54137284 -0.52565157 0.75815845
7.6360002 4.5440001 -1.373 0.072164163 0.53533071 -0.52237791 0.75144213
7.6459999 4.5819998 -1.378 0.069998115 0.534051 -0.5201546 0.74877971
7.638 4.6100001 -1.3789999 0.076025002 0.53427458 -0.51155299 0.7435829
7.6389999 4.6269999 -1.381 0.075877331 0.53577709 -0.51146358 0.74458683
7.5890002 4.6300001 -1.374 0.069185495 0.525545 -0.54468757 0.76004523
7.2750001 4.4710002 -1.3150001 0.058673225 0.51767087 -0.58459717 0.78305781
7.21 4.4619999 -1.3049999 0.075814947 0.50920188 -0.58836198 0.78179556
7.1680002 4.467 -1.299 0.07912837 0.50669211 -0.60109311 0.79013366
7.1339998 4.4770002 -1.295 0.10506848 0.50452679 -0.60647786 0.7958656
7.0929999 4.4829998 -1.29 0.12406482 0.48674342 -0.63330013 0.80831939
7.066 4.4819999 -1.286 0.14462963 0.48006621 -0.64467347 0.81669158
7.0320001 4.4910002 -1.2819999 0.16903251 0.47214526 -0.65330476 0.8235898
6.994 4.4980001 -1.277 0.1947962 0.45011029 -0.67601776 0.83519155
6.9590001 4.506 -1.273 0.20771869 0.43005732 -0.71128356 0.85675007
6.928 4.5170002 -1.27 0.22741649 0.41542086 -0.72992051 0.87010151
6.9050002 4.5339999 -1.268 0.24657276 0.39497989 -0.74979031 0.88260561
6.8600001 4.5349998 -1.262 0.26132756 0.37912765 -0.7602607 0.88883418
6.849 4.5440001 -1.261 0.29440704 0.34259558 -0.781165 0.90236688
6.8200002 4.5549998 -1.258 0.30902556 0.33564541 -0.77797413 0.90188599
6.8060002 4.5770001 -1.258 0.327959 0.31019765 -0.78883642 0.90886885
6.7670002 4.5809999 -1.253 0.38023025 0.30832937 -0.73823643 0.88579631
6.7610002 4.6079998 -1.255 0.39323089 0.28425142 -0.74558288 0.8895635
6.7979999 4.6960001 -1.268 0.38820362 0.25094867 -0.79659688 0.92100155
6.757 4.684 -1.261 0.38482189 0.24574234 -0.80410415 0.9246949
6.75 4.71 -1.263 0.39224923 0.238185 -0.80173111 0.92377716
6.7470002 4.7389998 -1.265 0.40505457 0.22472404 -0.79928678 0.92381245
6.7449999 4.77 -1.268 0.41034105 0.20475695 -0.80380297 0.92542124
6.7839999 4.8299999 -1.279 0.41981319 0.17683282 -0.80718583 0.92685598
6.8319998 4.895 -1.2920001 0.42903143 0.14799534 -0.81088048 0.92924577
6.802 4.9070001 -1.289 0.43290609 0.14890145 -0.8059355 0.92688262
6.789 4.914 -1.288 0.43698385 0.14245315 -0.80516994 0.92711729
6.7930002 4.9489999 -1.2920001 0.4546265 0.12329973 -0.78936267 0.91922873
6.6529999 4.8800001 -1.266 0.43892211 0.13768539 -0.8036288 0.92597473
6.6599998 4.9169998 -1.271 0.45204228 0.12555647 -0.79001486 0.91881996
6.6729999 4.9590001 -1.277 0.45402971 0.1281305 -0.78678119 0.91737944
6.6750002 4.993 -1.28 0.45622572 0.12321383 -0.7863425 0.91741925
6.678 5.0279999 -1.284 0.46478328 0.11300682 -0.7773087 0.91268992
6.6609998 5.0310001 -1.2819999 0.47394463 0.10858589 -0.76373816 0.90537858
6.6360002 5.0450001 -1.28 0.45697916 0.1033664 -0.79026318 0.9187113
6.6999998 5.1269999 -1.2970001 0.49111173 0.11313295 -0.74630547 0.90053409
6.704 5.1630001 -1.302 0.49222094 0.10735959 -0.74660963 0.90068501
6.678 5.177 -1.3 0.48237255 0.10071431 -0.76429999 0.90938503
6.6700001 5.204 -1.301 0.50099444 0.087306105 -0.73532397 0.89404649
6.6799998 5.2459998 -1.307 0.50525206 0.078970701 -0.72965169 0.89101493
6.605 5.204 -1.293 0.48244926 0.081569463 -0.76240617 0.90591061
6.5960002 5.2309999 -1.294 0.48351124 0.080806628 -0.76083165 0.90508431
6.6040001 5.2709999 -1.3 0.50164479 0.069308385 -0.73335749 0.89121509
6.4629998 5.1919999 -1.273 0.53582966 0.072921194 -0.64569944 0.84223437
6.6680002 5.3899999 -1.321 0.52959859 0.05500697 -0.68884718 0.87063819
6.6269999 5.3909998 -1.3150001 0.52815753 0.04501012 -0.68719888 0.86788166
6.6110001 5.4130001 -1.316 0.53018355 0.032897577 -0.68574697 0.86742479
6.6100001 5.4299998 -1.317 0.53547978 0.020800531 -0.66882777 0.85703081
6.6079998 5.4629998 -1.321 0.53621477 0.013597596 -0.66387159 0.85348499
6.6139998 5.5029998 -1.326 0.53692341 -0.0075057596 -0.64909184 0.84241515
6.5999999 5.526 -1.326 0.53992021 -0.0088673905 -0.63949925 0.8369897
6.6020002 5.5630002 -1.331 0.54056454 -0.017712414 -0.64126444 0.83889443
6.6129999 5.6079998 -1.337 0.54412347 -0.034037355 -0.61682093 0.82322353
6.6110001 5.6420002 -1.34 0.54393584 -0.055071037 -0.5995844 0.81141883
6.6290002 5.6750002 -1.346 0.54242873 -0.061390053 -0.59462351 0.8072018
6.632 5.7140002 -1.351 0.54486173 -0.055672441 -0.59211099 0.80657864
6.6300001 5.7490001 -1.355 0.54617286 -0.048848197 -0.58879012 0.80458981
6.6430001 5.7969999 -1.362 0.54424304 -0.066254541 -0.58808762 0.80401319
6.6500001 5.8400002 -1.367 0.54365396 -0.069522873 -0.58619004 0.80250347
6.6500001 5.8759999 -1.3710001 0.54064792 -0.080614306 -0.5919565 0.80573654
6.6370001 5.902 -1.373 0.54082763 -0.085344374 -0.59126776 0.80583853
6.6589999 5.9400001 -1.38 0.53238195 -0.09197405 -0.59727943 0.80537724
9.9569998 4.5739999 -1.819 0.30896169 0.48376995 -0.46723443 0.74013424
9.9209995 4.5949998 -1.8150001 0.32621092 0.3551808 -0.18631059 0.51698995
9.8760004 4.612 -1.809 0.28214696 0.33006793 -0.1356827 0.45493028
9.7779999 4.6040001 -1.793 0.19277173 0.46811622 -0.27491087 0.57608134
9.6639996 4.5679998 -1.772 0.0933979 0.52738708 -0.43361643 0.68911791
9.5930004 4.5710001 -1.761 0.14893749 0.50682688 -0.35949564 0.63897806
9.5790005 4.6009998 -1.761 0.1619973 0.50263298 -0.35329151 0.63537228
9.5819998 4.6399999 -1.7640001 0.18301177 0.45741189 -0.2576203 0.55595607
9.573 4.6729999 -1.765 0.17743641 0.42515352 -0.20345539 0.50362021
9.5380001 4.6929998 -1.761 0.22566928 0.40165702 -0.19045854 0.49852726
9.658 4.79 -1.788 0.11436604 0.31279215 -0.079002738 0.34228638
9.2309999 4.5949998 -1.705 0.11346978 0.50702 -0.32467082 0.61266291
9.1370001 4.5840001 -1.689 0.072971299 0.48237896 -0.26209944 0.55381441
9.0480003 4.5749998 -1.674 0.040065899 0.5094676 -0.340406 0.61403483
8.9980001 4.585 -1.6670001 0.030885056 0.51056498 -0.3523035 0.62108636
8.901 4.5710001 -1.651 0.086312398 0.53166813 -0.40903488 0.67633599
8.8260002 4.5669999 -1.638 0.090496868 0.52719921 -0.41089165 0.67450768
8.7629995 4.5689998 -1.6289999 0.097539663 0.52070582 -0.37760776 0.65056604
8.665 4.5349998 -1.61 0.068180472 0.53373408 -0.42459559 0.68542111
8.5900002 4.5300002 -1.598 0.046122562 0.5333125 -0.43092191 0.68719953
8.4940004 4.513 -1.582 0.066707425 0.54201412 -0.43369216 0.69736511
8.4239998 4.5100002 -1.571 0.065258175 0.54011077 -0.43341982 0.69557965
8.3579998 4.5079999 -1.5599999 0.079980358 0.53987664 -0.42792347 0.69352877
8.2869997 4.5029998 -1.549 0.071863778 0.52539825 -0.42111081 0.67715734
8.224 4.5029998 -1.539 0.06663882 0.52087957 -0.37457356 0.64502835
8.1689997 4.4889998 -1.529 0.072183788 0.5184505 -0.36818504 0.63997
8.1009998 4.4850001 -1.518 0.065626621 0.51874328 -0.37145209 0.64138764
8.0439997 4.4860001 -1.5089999 0.070320144 0.52017844 -0.37680301 0.64615095
7.9860001 4.4860001 -1.5 0.080673292 0.52119631 -0.38911128 0.65540928
7.9219999 4.4829998 -1.49 0.096093759 0.52469808 -0.41066676 0.67319334
7.8790002 4.4910002 -1.484 0.090011597 0.52724046 -0.42506099 0.68319941
7.822 4.4910002 -1.476 0.088157788 0.53139669 -0.44392312 0.69801289
7.7709999 4.4780002 -1.466 0.090389706 0.53218138 -0.45347023 0.70499825
7.7160001 4.4780002 -1.4579999 0.074595258 0.5345993 -0.46000004 0.7091974
7.658 4.4770002 -1.449 0.070368946 0.5443331 -0.46553242 0.71970183
7.677 4.5209999 -1.456 0.068548799 0.53649586 -0.46495849 0.71324128
7.6929998 4.5630002 -1.462 0.069372021 0.53323442 -0.46640682 0.71181935
7.6929998 4.5949998 -1.465 0.06793984 0.53220135 -0.4604573 0.70701838
7.5450001 4.539 -1.437 0.066395372 0.53574395 -0.49324578 0.73124641
7.4450002 4.494 -1.418 0.061756603 0.53768998 -0.5072186 0.74175137
7.3909998 4.493 -1.41 0.057074547 0.52620673 -0.50908786 0.73438513
7.3569999 4.5040002 -1.406 0.060952775 0.52498752 -0.51917899 0.74086028
7.3239999 4.5159998 -1.402 0.056469288 0.5251354 -0.51674175 0.73890322
7.2880001 4.5250001 -1.397 0.059332825 0.52508032 -0.51752239 0.73963445
7.1989999 4.5009999 -1.382 0.07575693 0.52438295 -0.53565013 0.75341731
7.1220002 4.4829998 -1.368 0.10316958 0.51400685 -0.5511266 0.76064944
7.0949998 4.4819999 -1.364 0.10546426 0.51283371 -0.55170369 0.76059061
7.0689998 4.4970002 -1.362 0.13980132 0.50635844 -0.56582719 0.77207756
7.04 4.5089998 -1.358 0.15436868 0.49452764 -0.57667965 0.77520752
6.9840002 4.5040002 -1.35 0.1839685 0.4842492 -0.59761298 0.79087484
6.96 4.52 -1.348 0.20549536 0.47091568 -0.60930496 0.79702097
6.928 4.5300002 -1.344 0.22547364 0.46223634 -0.61748713 0.80361134
6.882 4.5310001 -1.337 0.26646262 0.43991566 -0.632626 0.81531817
6.875 4.5419998 -1.337 0.26666975 0.43966973 -0.6326052 0.8152371
6.8249998 4.539 -1.329 0.32920688 0.40790665 -0.63076586 0.82014054
6.8070002 4.5580001 -1.329 0.36533687 0.37661338 -0.63641387 0.82482195
6.7919998 4.6409998 -1.335 0.40921435 0.32687548 -0.6651684 0.84661263
6.7820001 4.6659999 -1.336 0.43262872 0.308593 -0.65873146 0.84635949
6.8249998 4.711 -1.347 0.40761626 0.31268203 -0.70806026 0.87479734
6.8280001 4.7449999 -1.35 0.4287293 0.28360465 -0.71100223 0.87736225
6.789 4.75 -1.345 0.43947071 0.27218378 -0.71047491 0.87863135
6.803 4.7919998 -1.351 0.45412347 0.23593844 -0.71884775 0.88240421
6.7859998 4.8119998 -1.351 0.46897236 0.21245459 -0.71017188 0.87716365
6.7309999 4.8039999 -1.342 0.48060441 0.21026927 -0.68845248 0.86554062
6.7350001 4.8390002 -1.347 0.50761968 0.16859554 -0.66611719 0.85429168
6.7610002 4.8740001 -1.354 0.49809432 0.15209536 -0.70140463 0.87361282
6.8449998 4.9689999 -1.376 0.49827239 0.15319228 -0.70100349 0.87358409
6.862 5.013 -1.383 0.49998319 0.14780326 -0.70052123 0.87324625
6.6729999 4.9070001 -1.345 0.52457637 0.15234841 -0.6318748 0.83525813
6.6799998 4.9450002 -1.35 0.52507579 0.12096319 -0.6535148 0.84700549
6.671 4.9699998 -1.351 0.52853501 0.11507469 -0.64649224 0.84293753
6.6199999 4.9650002 -1.3430001 0.5275088 0.12330572 -0.6436674 0.84129518
6.625 4.9850001 -1.346 0.52972347 0.13524872 -0.62895018 0.83335316
6.6339998 5.0250001 -1.352 0.531286 0.11542736 -0.63871497 0.83877593
6.619 5.046 -1.352 0.52837205 0.11984156 -0.64556491 0.84278888
6.618 5.079 -1.355 0.52787083 0.10786717 -0.65325463 0.84677303
6.6129999 5.1079998 -1.358 0.52633536 0.11098184 -0.65137076 0.84476608
6.599 5.1300001 -1.358 0.53125834 0.10066552 -0.6510734 0.84632474
6.5890002 5.1550002 -1.36 0.53343904 0.10593601 -0.64266294 0.84189981
6.6129999 5.191 -1.367 0.5366829 0.10633953 -0.63984692 0.84186739
6.5939999 5.21 -1.3660001 0.53792256 0.10638471 -0.63573688 0.83954734
6.6129999 5.2589998 -1.374 0.54202336 0.09668988 -0.62498295 0.83291173
6.618 5.2969999 -1.3789999 0.54633182 0.069096491 -0.62363476 0.83196944
6.6279998 5.3400002 -1.385 0.55390906 0.049488656 -0.59901905 0.8173666
6.6149998 5.3629999 -1.386 0.55753064 0.051112108 -0.56947565 0.79859591
6.6020002 5.3870001 -1.387 0.55557621 0.0338597 -0.57936722 0.80341631
6.592 5.3969998 -1.387 0.55909061 0.024931574 -0.5527786 0.78661811
6.5879998 5.427 -1.39 0.56240731 0.027729105 -0.55039626 0.78740519
6.599 5.4720001 -1.396 0.562392 0.013858937 -0.55780953 0.79222995
6.5739999 5.4860001 -1.3940001 0.56130821 0.00043492392 -0.54462576 0.78210253
6.5890002 5.5339999 -1.402 0.56015015 -0.023707218 -0.5407685 0.77894855
6.5760002 5.5580001 -1.403 0.56167454 -0.022284135 -0.54440904 0.78253186
6.5599999 5.5799999 -1.403 0.55949003 -0.028376658 -0.55444777 0.78819203
6.5929999 5.6259999 -1.413 0.55613768 -0.050565876 -0.55014753 0.7839058
6.5749998 5.6469998 -1.413 0.55160493 -0.053272229 -0.56033945 0.78809023
6.5900002 5.6960001 -1.421 0.54769832 -0.060683984 -0.56204343 0.7871142
6.5749998 5.7189999 -1.421 0.54648286 -0.067008197 -0.55970621 0.78511441
6.6030002 5.7800002 -1.432 0.55043721 -0.05617338 -0.56683487 0.79211009
6.598 5.8130002 -1.4349999 0.5476799 -0.064265527 -0.58009249 0.80036902
6.6149998 5.8470001 -1.442 0.54556888 -0.073295325 -0.5844233 0.80285007
6.6950002 5.9549999 -1.465 0.53862661 -0.097332627 -0.57340968 0.79271114
6.678 5.9780002 -1.465 0.53808111 -0.10221528 -0.55002713 0.7762146
10.089 4.2319999 -1.897 0.46822774 0.10185087 -0.15834844 0.50466329
10.081 4.2659998 -1.898 0.25934833 0.081642106 -0.014766097 0.27229583
10.078 4.303 -1.9 0.3830207 0.10750028 -0.067720503 0.40354335
10.09 4.3449998 -1.906 0.47767538 0.12810285 -0.14996067 0.51679039
10.07 4.355 -1.903 0.38153154 0.1031661 -0.064882815 0.40052381
10.08 4.3969998 -1.908 0.37790129 0.09602759 -0.070875257 0.39630038
10.082 4.4359999 -1.911 0.38968486 0.10260932 -0.079623461 0.41075888
10.061 4.4640002 -1.91 0.38979617 0.09577778 -0.08404249 0.41009459
10.08 4.5100002 -1.916 0.41363248 0.12524116 -0.10572046 0.44492021
10.067 4.5430002 -1.916 0.40878889 0.12181743 -0.10618275 0.43957096
10.049 4.573 -1.916 0.36773759 0.11634507 -0.077431113 0.39339888
10.056 4.5949998 -1.919 0.35735279 0.12959737 -0.07367757 0.38720134
9.7419996 4.5640001 -1.863 0.2251547 0.27530569 -0.073798895 0.3632274
9.6739998 4.5689998 -1.852 0.094905049 0.24259734 -0.037725031 0.26321781
9.6429996 4.592 -1.849 0.074521452 0.37071079 -0.12794828 0.39918756
9.632 4.6240001 -1.85 0.11599033 0.29376686 -0.069248259 0.3233389
9.6660004 4.658 -1.858 0.11932297 0.35319042 -0.11367175 0.38974699
9.6730003 4.6989999 -1.863 0.055611189 0.31657976 -0.085370839 0.33257109
9.9280005 4.8610001 -1.918 0.2242711 0.15586415 -0.019907951 0.27383843
9.9709997 4.921 -1.9299999 0.23524454 0.11760915 -0.013626754 0.26335829
9.9729996 4.961 -1.934 0.26258144 0.14570236 -0.026092559 0.30142829
9.9119997 4.9689999 -1.924 0.19242871 0.15985858 -0.011571884 0.25043458
9.2629995 4.7740002 -1.801 0.2117797 0.33392224 -0.11339661 0.4113557
8.8830004 4.6149998 -1.725 0.063298509 0.4989939 -0.30699283 0.58927602
8.7309999 4.5710001 -1.697 0.062378615 0.52468109 -0.39683425 0.66080159
8.6569996 4.5669999 -1.684 0.045782853 0.52710772 -0.39268297 0.65889192
8.4440002 4.5409999 -1.647 0.078177467 0.53563118 -0.40057993 0.67340684
8.3809996 4.5409999 -1.637 0.078896038 0.53524786 -0.39843944 0.67191428
8.2989998 4.5310001 -1.623 0.083592527 0.53336179 -0.38091683 0.66072696
8.2320004 4.527 -1.6109999 0.057523493 0.53038889 -0.4264487 0.68299329
8.1520004 4.5170002 -1.598 0.041328851 0.53045547 -0.46061224 0.70374334
8.0839996 4.513 -1.586 0.064474508 0.5324139 -0.48653755 0.72411346
8.0240002 4.4959998 -1.575 0.070028529 0.53019023 -0.43163088 0.68724877
7.974 4.5009999 -1.568 0.087119222 0.52716726 -0.42368275 0.68191063
7.9099998 4.4980001 -1.557 0.094571434 0.52662182 -0.42231545 0.68163383
7.8000002 4.5009999 -1.54 0.087115869 0.52997583 -0.43105629 0.68867487
7.724 4.4899998 -1.526 0.07056161 0.53360367 -0.44683987 0.69955534
7.7020001 4.5089998 -1.525 0.064894289 0.53632879 -0.44789243 0.70176029
7.7030001 4.526 -1.526 0.065168977 0.53313065 -0.44777334 0.6992684
7.6059999 4.5019999 -1.5089999 0.065692119 0.53694326 -0.45978406 0.70994711
7.5219998 4.4850001 -1.494 0.058933444 0.54227293 -0.47042239 0.72029877
7.4689999 4.4850001 -1.485 0.05556519 0.53988081 -0.47773448 0.72304147
7.4330001 4.4949999 -1.4809999 0.050221026 0.53691286 -0.4764007 0.7195521
7.3889999 4.5 -1.474 0.053214535 0.5349263 -0.48971581 0.72718602
7.3270001 4.4949999 -1.464 0.054193433 0.53425461 -0.49122366 0.7277813
7.2930002 4.4899998 -1.4579999 0.057723563 0.52550435 -0.49320224 0.72300434
7.2490001 4.494 -1.452 0.062943712 0.52548248 -0.50262833 0.72988284
7.217 4.506 -1.448 0.064362854 0.52725017 -0.50569361 0.73339033
7.1409998 4.4899998 -1.434 0.085708916 0.52503949 -0.51120949 0.73779917
7.0799999 4.4829998 -1.424 0.11892224 0.51375508 -0.52116251 0.74141562
7.053 4.4970002 -1.421 0.13234451 0.51153833 -0.52682996 0.74614769
7.0219998 4.5079999 -1.4170001 0.16373369 0.50521183 -0.53278238 0.75226647
6.9780002 4.4959998 -1.409 0.17627412 0.50430888 -0.53064787 0.75298548
6.9590001 4.5149999 -1.408 0.20114568 0.49031422 -0.54252678 0.75842136
6.8600001 4.5430002 -1.396 0.286953 0.44462189 -0.55907339 0.76980108
6.7859998 4.5560002 -1.386 0.37135509 0.38664103 -0.58612853 0.79431891
6.763 4.586 -1.385 0.40525851 0.3581692 -0.58183014 0.794384
6.7709999 4.6230001 -1.39 0.42775291 0.33464167 -0.58993113 0.80185807
6.7529998 4.6420002 -1.39 0.4437649 0.31489596 -0.59280485 0.80467653
6.6399999 4.5949998 -1.368 0.45303714 0.285061 -0.61990887 0.81901735
6.7210002 4.6820002 -1.3890001 0.4743585 0.26956964 -0.60374415 0.81375104
6.7220001 4.7150002 -1.393 0.48278967 0.26409906 -0.5954864 0.81082565
6.7280002 4.7340002 -1.396 0.48800594 0.25958526 -0.59680158 0.81345344
6.7080002 4.7519999 -1.3940001 0.49517283 0.25239074 -0.5823825 0.80502582
6.723 4.7950001 -1.401 0.51763922 0.21182814 -0.55276006 0.78636199
6.697 4.8080001 -1.399 0.52504098 0.19090389 -0.56256008 0.79283428
6.677 4.8249998 -1.398 0.529661 0.17982633 -0.55741483 0.7896769
6.6599998 4.8449998 -1.397 0.53724158 0.16056584 -0.54471213 0.78174239
6.6500001 4.869 -1.398 0.53758776 0.15870547 -0.54661024 0.78292447
6.6440001 4.881 -1.399 0.53895122 0.15427472 -0.54565138 0.78230715
6.6479998 4.9159999 -1.403 0.54234231 0.14796081 -0.52806389 0.77128404
6.6350002 4.9390001 -1.404 0.54452157 0.14719464 -0.52541953 0.77086681
6.6149998 4.9559999 -1.403 0.54444742 0.14525726 -0.52876878 0.77273482
6.6149998 4.9889998 -1.406 0.54671943 0.14003731 -0.51799077 0.76604635
6.6170001 5.0229998 -1.41 0.54693919 0.14078102 -0.52392578 0.77036357
6.6009998 5.0430002 -1.41 0.54475999 0.14229333 -0.51892996 0.76570171
6.5960002 5.0560002 -1.411 0.54746389 0.12960285 -0.51652789 0.76375037
6.605 5.0960002 -1.4170001 0.5492661 0.12088832 -0.52151883 0.76700008
6.5780001 5.1079998 -1.414 0.54949176 0.12257642 -0.50832307 0.75852388
6.5819998 5.145 -1.419 0.55028576 0.12196372 -0.49837562 0.75237477
6.5739999 5.171 -1.421 0.55529439 0.11131059 -0.48587143 0.74619901
6.5510001 5.1869998 -1.42 0.55663013 0.10146716 -0.47966859 0.74176455
6.559 5.21 -1.423 0.55744559 0.095172301 -0.48503315 0.74502385
6.5760002 5.257 -1.431 0.55987096 0.089441061 -0.47358087 0.73873812
6.5469999 5.2680001 -1.428 0.56144702 0.077183917 -0.48032048 0.74289155
6.54 5.296 -1.4299999 0.56248456 0.053217247 -0.5022223 0.75594193
6.5539999 5.3410001 -1.438 0.5640049 0.045428835 -0.49461809 0.75154001
6.5580001 5.4130001 -1.447 0.56285214 0.029142316 -0.4903174 0.7470361
6.5840001 5.4689999 -1.457 0.56523395 0.015794147 -0.50805146 0.76016784
6.6009998 5.5009999 -1.4630001 0.5626567 0.0016805306 -0.51499665 0.76276273
6.428 5.3920002 -1.426 0.56372726 0.022766007 -0.52738863 0.77229881
6.6279998 5.5939999 -1.478 0.55813146 -0.043199185 -0.50898939 0.75660235
6.5549998 5.5679998 -1.465 0.56233954 -0.016272452 -0.53119278 0.77372885
6.5489998 5.598 -1.4680001 0.56042135 -0.031349782 -0.52747679 0.77025104
6.585 5.665 -1.4809999 0.55534846 -0.063200615 -0.51689756 0.76130766
6.573 5.691 -1.482 0.55227399 -0.062849954 -0.52404881 0.76392657
6.605 5.7360001 -1.492 0.54770756 -0.076839194 -0.52846694 0.76496089
6.6069999 5.7750001 -1.497 0.55492461 -0.057792697 -0.52137816 0.76362067
6.6009998 5.8060002 -1.5 0.55389267 -0.070585869 -0.50684512 0.75410306
6.612 5.8520002 -1.507 0.55201763 -0.080952704 -0.51087272 0.75648379
6.6370001 5.9109998 -1.518 0.54164559 -0.10821474 -0.49825993 0.74387723
9.5810003 4.2509999 -1.905 0.58057684 -0.010115627 -0.37242916 0.6898371
9.5550003 4.402 -1.9119999 0.22094038 -0.13775668 -0.040878922 0.26355767
9.5699997 4.4460001 -1.918 0.21666349 -0.1488626 -0.044556409 0.26662412
9.559 4.5139999 -1.9220001 0.23618814 0.30358148 -0.098479718 0.39704511
9.5380001 4.5409999 -1.921 0.19674322 0.2795347 -0.070844054 0.34909374
9.5360003 4.5770001 -1.923 0.19773173 0.27354065 -0.068644732 0.34443349
9.54 4.5970001 -1.926 0.19672427 0.33027318 -0.10756969 0.39918923
9.5209999 4.625 -1.925 0.1920484 0.28835428 -0.076936603 0.35489437
9.5279999 4.665 -1.929 0.21356988 0.33129492 -0.11627755 0.41096091
9.5019999 4.7270002 -1.9299999 0.16549015 0.22565925 -0.039133787 0.28256068
9.5059996 4.7659998 -1.934 0.1602454 0.23794124 -0.043955117 0.29021832
9.5 4.8010001 -1.936 0.13091144 0.22592962 -0.035474062 0.26351547
9.4870005 4.8130002 -1.9349999 0.14234403 0.21826799 -0.033246577 0.26269388
9.25 4.9699998 -1.909 0.21454495 0.20381504 -0.033288658 0.29778892
9.1470003 4.9510002 -1.8890001 0.1975801 0.25052512 -0.048610419 0.32274401
9.0249996 4.921 -1.8660001 0.026004978 0.29550144 -0.065260708 0.30373725
8.6269999 4.7379999 -1.781 0.05349857 0.43842956 -0.19822851 0.48412511
8.2849998 4.5830002 -1.709 0.043767154 0.50573927 -0.31126279 0.59545976
8.1850004 4.5609999 -1.6900001 0.03022432 0.52049148 -0.38359529 0.64727908
8.1230001 4.5430002 -1.677 0.055167202 0.52378446 -0.40375251 0.6636337
8.059 4.54 -1.666 0.052376639 0.52398592 -0.40486202 0.66424227
7.9970002 4.539 -1.656 0.083018303 0.52762097 -0.42707673 0.68386436
7.9400001 4.539 -1.646 0.087201782 0.52547652 -0.42357594 0.68054855
7.8699999 4.5320001 -1.6339999 0.070081286 0.53131837 -0.46294945 0.70818979
7.7880001 4.5170002 -1.619 0.042764388 0.53373659 -0.46153113 0.70690489
7.723 4.4949999 -1.6059999 0.06321869 0.53870577 -0.51653504 0.74900532
7.677 4.5 -1.598 0.059785277 0.53798681 -0.49542114 0.73378891
7.6240001 4.5009999 -1.59 0.079191841 0.53627175 -0.5140453 0.74706179
7.5339999 4.48 -1.573 0.06158777 0.54281288 -0.48860022 0.73291814
7.4959998 4.4889998 -1.567 0.061080135 0.54009223 -0.48758507 0.73018461
7.5120001 4.5310001 -1.574 0.061651483 0.53605974 -0.48092708 0.7228083
7.4679999 4.5359998 -1.567 0.056391045 0.53578424 -0.47348225 0.71723789
7.4029999 4.5289998 -1.556 0.055750951 0.53569931 -0.4621917 0.70972043
7.348 4.5110002 -1.545 0.05606718 0.53290069 -0.46369532 0.7086184
7.3200002 4.5250001 -1.5420001 0.05039179 0.53294665 -0.46396217 0.70840126
7.2509999 4.5139999 -1.529 0.0661062 0.52517116 -0.45116839 0.69550538
7.1869998 4.5050001 -1.518 0.081248119 0.52316308 -0.44811407 0.69361883
7.1360002 4.5050001 -1.5089999 0.087126553 0.52343035 -0.45572191 0.69946611
7.092 4.5079999 -1.503 0.11398469 0.52191079 -0.46113601 0.70571226
6.9450002 4.4910002 -1.477 0.19285652 0.5000174 -0.49065179 0.72660184
6.8010001 4.52 -1.457 0.32305881 0.43090972 -0.52857137 0.75461107
6.7940001 4.546 -1.4579999 0.34819528 0.41261449 -0.53872573 0.76270312
6.7540002 4.5339999 -1.451 0.36828429 0.39949495 -0.52457076 0.75525093
6.7270002 4.5469999 -1.447 0.39011496 0.37678289 -0.55283695 0.77445704
6.7080002 4.5640001 -1.446 0.42051357 0.34724241 -0.55382085 0.77725577
6.6789999 4.5749998 -1.443 0.43498453 0.32977474 -0.55241591 0.77661204
6.6719999 4.6020002 -1.4450001 0.44994953 0.31202409 -0.54888511 0.77529895
6.6560001 4.6220002 -1.444 0.46739081 0.2880477 -0.56162012 0.78539342
6.6620002 4.6570001 -1.449 0.48045188 0.26424873 -0.56519306 0.78746724
6.652 4.665 -1.449 0.48198336 0.26073188 -0.56217271 0.78506511
6.6420002 4.6900001 -1.45 0.49865448 0.23381159 -0.57428336 0.79569185
6.6269999 4.711 -1.45 0.50488818 0.22323211 -0.5677256 0.79186934
6.5970001 4.7199998 -1.446 0.51393878 0.20022438 -0.57443351 0.79636472
6.5939999 4.75 -1.449 0.52520287 0.18892202 -0.54916167 0.78301221
6.5999999 4.7859998 -1.454 0.53168529 0.17251174 -0.54049897 0.77755302
6.585 4.79 -1.452 0.53196347 0.17161536 -0.53789639 0.77573806
6.5679998 4.8099999 -1.452 0.53547043 0.16087973 -0.53528535 0.77404219
6.5700002 4.8429999 -1.456 0.54008073 0.14532968 -0.53117603 0.77133387
6.5560002 4.8649998 -1.456 0.53963828 0.14752333 -0.52932185 0.77016509
6.5380001 4.8829999 -1.455 0.53973407 0.13623494 -0.51981002 0.76162672
6.5430002 4.9190001 -1.46 0.54000944 0.14060344 -0.52192682 0.76405966
6.5510001 4.9569998 -1.466 0.5440914 0.12760504 -0.5118345 0.75782126
6.5539999 4.9759998 -1.469 0.54109555 0.14629644 -0.50767756 0.75625628
6.5599999 5.046 -1.478 0.54768783 0.13016978 -0.48464397 0.74282295
6.5440001 5.0669999 -1.478 0.54995483 0.11500403 -0.48519579 0.74235517
6.5609999 5.1129999 -1.4859999 0.5501827 0.11919336 -0.48769408 0.74481785
6.5479999 5.1360002 -1.487 0.55259824 0.10246786 -0.48074472 0.73958093
6.5240002 5.1500001 -1.485 0.5539937 0.094454013 -0.47767398 0.73756558
6.5479999 5.1859999 -1.493 0.55409813 0.094743013 -0.48212647 0.74057198
6.5650001 5.2340002 -1.501 0.55767411 0.09156701 -0.47974396 0.74130911
6.5700002 5.2709999 -1.506 0.56161624 0.076765686 -0.48743308 0.747594
6.5549998 5.2930002 -1.507 0.56218314 0.064583927 -0.48515105 0.74538082
6.5510001 5.3239999 -1.51 0.5634582 0.070402928 -0.48680842 0.74794662
6.5440001 5.3530002 -1.512 0.5640105 0.049026798 -0.49377456 0.75121552
6.546 5.3889999 -1.517 0.56295562 0.031338654 -0.49324608 0.74912804
6.5689998 5.4250002 -1.525 0.56279004 0.027740875 -0.49098378 0.74737358
6.5500002 5.4450002 -1.525 0.56155479 0.022256786 -0.51016128 0.75901496
6.5599999 5.4879999 -1.531 0.56113064 0.019987701 -0.49311364 0.74728054
6.5650001 5.5279999 -1.5369999 0.56174833 0.0053063408 -0.48143959 0.73984689
6.6599998 5.6440001 -1.566 0.55527169 -0.051375508 -0.47182617 0.7304697
6.362 5.4239998 -1.494 0.54990613 4.728511e-05 -0.59330082 0.80895156
6.5289998 5.6030002 -1.541 0.56250358 -0.019331407 -0.50750917 0.75785851
6.546 5.6350002 -1.548 0.56236202 -0.014463145 -0.52444488 0.76909208
6.5770001 5.6989999 -1.5599999 0.55755031 -0.046417922 -0.53652859 0.77516443
6.6799998 5.8249998 -1.592 0.5412007 -0.10843126 -0.48072475 0.7319507
6.691 5.8720002 -1.599 0.53936535 -0.10675738 -0.49387622 0.73907095
6.7179999 5.934 -1.6109999 0.56122309 0.020763544 -0.42374393 0.70353496
6.711 5.9650002 -1.614 0.56429648 0.0065493584 -0.45326 0.72382182
8.849 4.3699999 -1.902 0.38218868 0.1894574 -0.87632096 0.97462851
8.842 4.401 -1.903 0.40030301 0.21910587 -0.85125923 0.96586341
8.8299999 4.4299998 -1.904 0.33734524 0.23115225 -0.88757467 0.97725224
8.8360004 4.467 -1.908 0.4466244 0.20917635 -0.80927873 0.94771314
8.8140001 4.4910002 -1.9069999 0.40302885 0.22680251 -0.83762747 0.95681316
8.809 4.5240002 -1.909 0.41082159 0.2441543 -0.81622624 0.94583881
8.823 4.5479999 -1.913 0.45918715 0.17825881 -0.79239953 0.93301988
8.8030005 4.573 -1.9119999 0.40354389 0.10084835 -0.87170225 0.96585864
8.7919998 4.6030002 -1.913 -0.11774041 0.26059288 -0.092808127 0.30064064
8.7880001 4.6360002 -1.915 -0.082547069 0.2431902 -0.06764707 0.26557788
8.7889996 4.7420001 -1.926 0.050353136 0.26797462 -0.050497532 0.27730098
8.7670002 4.7659998 -1.924 -0.051867396 0.2577517 -0.062891662 0.27033597
8.7489996 4.7740002 -1.9220001 -0.059524462 0.24879241 -0.059382677 0.26261592
