# .PCD v0.7 - Point Cloud Data file format
VERSION 0.7
FIELDS x y z normal_x normal_y normal_z curvature
SIZE 4 4 4 4 4 4 4
TYPE F F F F F F F
COUNT 1 1 1 1 1 1 1
WIDTH 470
HEIGHT 1
VIEWPOINT 0 0 0 1 0 0 0
POINTS 470
DATA ascii
-11.547 -2.842 -0.82099998 0.2266739 -0.11599427 -0.094165772 0.27148283
-11.531 -2.8759999 -0.82099998 0.23693852 -0.14366134 -0.10705918 0.29705235
-11.512 -2.9100001 -0.81999999 0.25641471 -0.16050526 -0.12809163 0.32850862
-11.497 -2.9449999 -0.81900001 0.25844479 -0.1620097 -0.13036609 0.33171701
-11.49 -2.9809999 -0.81900001 0.28439969 -0.21057275 -0.17340654 0.39407346
-11.535 -3.013 -0.824 0.20731497 -0.2806603 -0.14913216 0.37946028
-11.404 -2.878 -0.88 0.33230644 -0.16110778 -0.20585665 0.42280048
-11.418 -2.9200001 -0.88200003 0.31620276 -0.17615499 -0.19145134 0.4094733
-11.418 -2.9579999 -0.88300002 0.30919361 -0.19272462 -0.19034564 0.41106561
-11.405 -2.993 -0.88300002 0.32950714 -0.21430105 -0.227043 0.45392558
-11.888 -1.6160001 -0.97799999 0.36931789 0.19866395 -0.36714712 0.55736887
-11.808 -1.643 -0.97100002 0.34237385 0.23708391 -0.35758138 0.54890168
-11.775 -1.676 -0.96799999 0.31198296 0.2562367 -0.31406188 0.51149338
-11.75 -1.71 -0.96600002 0.2828331 0.25610471 -0.27211815 0.46864963
-11.737 -1.7460001 -0.96499997 0.29835117 0.25034755 -0.29159689 0.48653474
-11.724 -1.763 -0.96399999 0.29514661 0.24657935 -0.28067744 0.47612259
-11.705 -1.7970001 -0.963 0.29445222 0.25422591 -0.28964597 0.48500279
-11.681 -1.831 -0.96100003 0.30662471 0.25344253 -0.31031537 0.50452697
-11.687 -1.87 -0.96200001 0.31421378 0.25545627 -0.32933372 0.5219664
-11.687 -1.9069999 -0.963 0.33145648 0.24582005 -0.35287395 0.54296494
-11.673 -1.943 -0.96200001 0.23040929 0.17592236 -0.14506578 0.3241623
-11.644 -1.975 -0.95999998 0.35401344 0.22016361 -0.36545998 0.55439925
-11.615 -1.989 -0.95700002 0.35724688 0.21518254 -0.36881077 0.55673176
-11.593 -2.023 -0.95599997 0.35723007 0.19634178 -0.33684713 0.52879995
-11.577 -2.0580001 -0.95499998 0.36970964 0.18928425 -0.35694647 0.54765368
-11.555 -2.0910001 -0.95300001 0.37941888 0.16510776 -0.35040376 0.54221958
-11.538 -2.1259999 -0.95200002 0.3246237 0.12815298 -0.21441326 0.40960565
-11.512 -2.158 -0.94999999 0.32974991 0.10625081 -0.20938975 0.40480649
-11.503 -2.194 -0.94999999 0.309147 0.081587717 -0.1729854 0.36352769
-11.478 -2.2079999 -0.94800001 0.30902556 0.084494181 -0.17213562 0.36368492
-11.467 -2.243 -0.94700003 0.31942612 0.09045431 -0.1823208 0.37875575
-11.458 -2.279 -0.94700003 0.30822045 0.076103762 -0.16575229 0.35814166
-11.445 -2.313 -0.94700003 0.31754395 0.072304539 -0.17487425 0.36965269
-11.442 -2.3499999 -0.94700003 0.30524594 0.062826157 -0.15853781 0.3496519
-11.425 -2.3840001 -0.94599998 0.32837427 0.054172408 -0.18214586 0.37939611
-11.419 -2.4200001 -0.94599998 0.32882088 0.036029842 -0.17814186 0.37570715
-11.421 -2.4400001 -0.94700003 0.32340729 0.03027245 -0.17060718 0.36689988
-11.396 -2.4719999 -0.94499999 0.31568873 0.030849393 -0.16315523 0.3566941
-11.39 -2.5079999 -0.94499999 0.32868728 0.0074521396 -0.17457843 0.37224787
-11.372 -2.5409999 -0.94400001 0.32635579 0.0040586945 -0.17381927 0.36978063
-11.374 -2.579 -0.94499999 0.3285526 -0.00039928779 -0.1708658 0.370327
-11.37 -2.6159999 -0.94599998 0.33659986 -0.018971235 -0.17781582 0.38115332
-11.365 -2.6530001 -0.94599998 0.35423332 -0.035804145 -0.20051131 0.40861714
-11.357 -2.6700001 -0.94599998 0.35677841 -0.051380657 -0.20510352 0.41472673
-11.333 -2.701 -0.94400001 0.35646874 -0.054932185 -0.20480034 0.41476583
-11.545 -2.868 -0.96799999 0.29477674 -0.15011401 -0.16149464 0.3681142
-11.513 -2.898 -0.96600002 0.3101435 -0.15448247 -0.17745954 0.38928872
-11.501 -2.934 -0.96600002 0.32147998 -0.17915165 -0.20166969 0.41966102
-11.491 -2.95 -0.96499997 0.32209417 -0.18048924 -0.201662 0.4207001
-11.395 -2.964 -0.95599997 0.33729029 -0.19057775 -0.22558063 0.44829816
-11.434 -3.0120001 -0.96100003 0.33391723 -0.20858842 -0.22893968 0.45543739
-11.555 -3.0829999 -0.97399998 0.23396222 -0.34747541 -0.22811195 0.47698277
-11.804 -1.602 -1.043 0.30067059 0.27490458 -0.32542729 0.52141947
-11.687 -1.624 -1.031 0.26994893 0.28848556 -0.29982495 0.49597514
-11.715 -1.665 -1.035 0.29092503 0.27539262 -0.31213987 0.5078482
-11.676 -1.697 -1.031 0.28738385 0.27265102 -0.30123115 0.49766278
-11.663 -1.733 -1.03 0.2838333 0.26593179 -0.2846241 0.48196673
-11.632 -1.765 -1.028 0.29570168 0.25484592 -0.2877925 0.48498502
-11.605 -1.799 -1.026 0.30122542 0.24190795 -0.27858227 0.47630274
-11.58 -1.813 -1.023 0.30797213 0.23486274 -0.28439605 0.48050854
-11.571 -1.849 -1.023 0.30292082 0.23353383 -0.27485251 0.4710021
-11.547 -1.883 -1.021 0.32411662 0.22013369 -0.29091007 0.48799497
-11.545 -1.92 -1.021 0.32858935 0.20748532 -0.28599054 0.48250565
-11.521 -1.9529999 -1.0190001 0.33200076 0.20036051 -0.28415057 0.48073941
-11.509 -1.988 -1.0190001 0.34368813 0.18517514 -0.28642559 0.48420137
-11.507 -2.0250001 -1.0190001 0.34187847 0.17996328 -0.27776691 0.47583833
-11.447 -2.033 -1.013 0.35954911 0.16396663 -0.29352206 0.49225584
-11.429 -2.0669999 -1.012 0.36842006 0.13885927 -0.28798026 0.48779902
-11.416 -2.102 -1.011 0.37865633 0.13433279 -0.30347908 0.5035131
-11.413 -2.138 -1.012 0.38137794 0.11911383 -0.29701239 0.49784896
-11.405 -2.174 -1.012 0.38870087 0.10707858 -0.30582285 0.50604528
-11.41 -2.2119999 -1.013 0.3925806 0.10716421 -0.31502944 0.51463312
-11.424 -2.2709999 -1.016 0.39451122 0.1043635 -0.31206751 0.5137285
-11.347 -2.2920001 -1.008 0.3981646 0.08676289 -0.31714365 0.51637483
-11.347 -2.3299999 -1.0089999 0.40597713 0.078027397 -0.32575488 0.52632874
-11.348 -2.3670001 -1.01 0.40927178 0.07341668 -0.33174458 0.53192842
-11.333 -2.401 -1.0089999 0.41120425 0.068784788 -0.33120736 0.53246468
-11.341 -2.4400001 -1.011 0.40868437 0.071683168 -0.32839012 0.52915162
-11.327 -2.474 -1.01 0.41323447 0.069448173 -0.33991832 0.53956485
-11.327 -2.493 -1.01 0.41584545 0.065253668 -0.35056564 0.5477972
-11.323 -2.529 -1.011 0.40991092 0.037368793 -0.31828609 0.52031666
-11.311 -2.5639999 -1.01 0.40868232 -0.0023953263 -0.30508763 0.5100053
-11.32 -2.6029999 -1.012 0.39342427 -0.021529045 -0.2670244 0.47597077
-11.308 -2.638 -1.012 0.39385384 -0.042566389 -0.26651412 0.47745422
-11.316 -2.677 -1.013 0.40709153 -0.060105577 -0.29313454 0.50523663
-11.311 -2.714 -1.0140001 0.40433607 -0.075678095 -0.29032853 0.50349331
-11.285 -2.7260001 -1.012 0.4002527 -0.082149781 -0.28333324 0.49722081
-11.526 -2.822 -1.038 0.36963511 -0.1290731 -0.25114661 0.46515009
-11.5 -2.8540001 -1.0369999 0.36820787 -0.13928995 -0.25300547 0.4679642
-11.527 -2.8989999 -1.04 0.35986564 -0.16563253 -0.25161272 0.46930414
-11.497 -2.9300001 -1.038 0.35658127 -0.2064244 -0.27203912 0.49372718
-11.413 -2.947 -1.03 0.37262899 -0.21009929 -0.30143967 0.52331632
-11.413 -2.9860001 -1.031 0.36520949 -0.21257654 -0.28723839 0.51095271
-11.418 -3.006 -1.0319999 0.35986221 -0.23231485 -0.29134858 0.51802993
-11.385 -3.036 -1.03 0.36956605 -0.23287579 -0.31266162 0.53718477
-11.719 -1.607 -1.112 0.26669985 0.30303469 -0.31909448 0.51456785
-11.744 -1.648 -1.115 0.28773257 0.28334275 -0.31272852 0.51075655
-11.798 -1.7309999 -1.123 0.29733813 0.27052596 -0.31419289 0.51020724
-11.769 -1.765 -1.12 0.29404286 0.26708308 -0.30496904 0.50080001
-11.793 -1.806 -1.123 0.30297768 0.26524669 -0.31386086 0.51054865
-11.76 -1.839 -1.12 0.31130162 0.2503984 -0.30726701 0.50400501
-11.608 -1.834 -1.104 0.32860026 0.23151939 -0.31398731 0.51006609
-11.531 -1.859 -1.096 0.33296284 0.21994793 -0.31226277 0.50670445
-11.519 -1.8940001 -1.095 0.33948672 0.21902338 -0.31732291 0.51372784
-11.535 -1.934 -1.097 0.34265348 0.20372108 -0.30674076 0.50299466
-11.499 -1.965 -1.094 0.3509742 0.19484502 -0.31235644 0.5086394
-11.478 -1.998 -1.092 0.35313702 0.18612511 -0.30650777 0.50328457
-11.461 -2.0320001 -1.091 0.37304088 0.16787936 -0.32824385 0.52448738
-11.446 -2.0480001 -1.09 0.37321472 0.15953407 -0.31903702 0.51626056
-11.442 -2.085 -1.09 0.38200772 0.15344022 -0.33046386 0.52790165
-11.441 -2.122 -1.091 0.39552122 0.13699271 -0.34968042 0.54541767
-11.433 -2.1570001 -1.091 0.39280453 0.13008164 -0.33366707 0.53155464
-11.414 -2.191 -1.089 0.40220115 0.11872 -0.3519668 0.54748589
-11.403 -2.2260001 -1.089 0.41043192 0.10019047 -0.3600142 0.55506998
-11.531 -2.3080001 -1.104 0.39294326 0.081198759 -0.29863757 0.50018197
-11.378 -2.3139999 -1.0880001 0.4168193 0.088192061 -0.36712104 0.56240028
-11.38 -2.352 -1.089 0.42259735 0.072167099 -0.37418255 0.56904233
-11.376 -2.388 -1.089 0.42297 0.071939945 -0.3754361 0.57011515
-11.371 -2.424 -1.09 0.42738402 0.063690931 -0.38635382 0.57964033
-11.377 -2.4630001 -1.091 0.4289431 0.068986177 -0.39866608 0.58964896
-11.357 -2.4960001 -1.09 0.43230677 0.047381833 -0.39425376 0.58700103
-11.365 -2.517 -1.091 0.4322502 0.033249155 -0.3844023 0.57940561
-11.355 -2.552 -1.091 0.43836197 0.0071782675 -0.38609153 0.58419126
-11.339 -2.586 -1.09 0.43105581 -0.020709695 -0.35758856 0.56045306
-11.345 -2.6240001 -1.092 0.43269128 -0.032320626 -0.36027837 0.56397414
-11.348 -2.6630001 -1.0930001 0.435682 -0.044774882 -0.36916107 0.5728032
-11.363 -2.704 -1.096 0.42761743 -0.076787867 -0.34832719 0.55685264
-11.36 -2.7409999 -1.096 0.4283416 -0.096949264 -0.36383221 0.57030654
-11.375 -2.7639999 -1.098 0.4249616 -0.11404674 -0.36354175 0.5707553
-11.526 -2.9159999 -1.119 0.39041939 -0.19665375 -0.3413431 0.55463064
-11.474 -2.941 -1.114 0.39435145 -0.20513487 -0.35280117 0.56750512
-11.449 -2.973 -1.112 0.39412719 -0.2232506 -0.37416163 0.58751512
-11.549 -3.0380001 -1.125 0.31994188 -0.34551552 -0.38128456 0.60590571
-11.424 -3.0239999 -1.1109999 0.38246399 -0.24911235 -0.36992866 0.58752263
-11.502 -3.0840001 -1.1210001 0.30127499 -0.36846706 -0.38181624 0.61017883
-11.692 -1.6160001 -1.182 0.27959397 0.30413535 -0.34662589 0.53927785
-11.791 -1.724 -1.1950001 0.28408784 0.29660004 -0.33866903 0.53232902
-11.766 -1.758 -1.193 0.29313785 0.29063326 -0.34427923 0.53751808
-11.59 -1.77 -1.173 0.32207668 0.25856134 -0.34682667 0.53932929
-11.718 -1.826 -1.189 0.32040942 0.26554522 -0.34976709 0.54361153
-11.604 -1.846 -1.176 0.34505427 0.23236933 -0.34863991 0.54277778
-11.478 -1.864 -1.1619999 0.34866562 0.21890537 -0.34415585 0.53659159
-11.46 -1.8789999 -1.16 0.34745091 0.22040299 -0.34283996 0.53557336
-11.46 -1.916 -1.16 0.3563568 0.21200302 -0.34776455 0.54117984
-11.448 -1.951 -1.16 0.36868641 0.19141844 -0.346102 0.54070073
-11.424 -1.984 -1.158 0.3800984 0.17279002 -0.35170382 0.54591829
-11.414 -2.0190001 -1.1569999 0.38635141 0.16461268 -0.35822892 0.55198979
-11.411 -2.056 -1.158 0.3973614 0.14874767 -0.37517807 0.5663749
-11.397 -2.0899999 -1.1569999 0.40519664 0.14019901 -0.38834435 0.57849061
-11.411 -2.1110001 -1.159 0.4083561 0.14055392 -0.40336657 0.59094393
-11.451 -2.1559999 -1.164 0.4155708 0.12700382 -0.41435403 0.60043174
-11.458 -2.194 -1.166 0.4181917 0.13490084 -0.43983814 0.62172353
-11.478 -2.2360001 -1.169 0.42776936 0.11094359 -0.45753035 0.63610464
-11.483 -2.2739999 -1.171 0.42926881 0.10896564 -0.47118002 0.64664972
-11.453 -2.3050001 -1.168 0.43355572 0.088832811 -0.47173521 0.64683533
-11.445 -2.3410001 -1.168 0.4340322 0.087250054 -0.47331795 0.64809448
-11.407 -2.352 -1.164 0.43517566 0.077695087 -0.45573729 0.63491011
-11.323 -2.372 -1.155 0.43503708 0.058029044 -0.4135406 0.60302609
-11.316 -2.408 -1.155 0.43486294 0.057253692 -0.41168335 0.6015538
-11.322 -2.4460001 -1.156 0.43876782 0.055590592 -0.44374228 0.62650996
-11.302 -2.4790001 -1.155 0.43974525 0.045307409 -0.4337979 0.619362
-11.318 -2.52 -1.158 0.44168648 0.035718422 -0.43792918 0.6230126
-11.333 -2.5610001 -1.16 0.44419539 0.014181627 -0.44791248 0.63098037
-11.313 -2.575 -1.159 0.44531083 0.013470417 -0.4487156 0.63232023
-11.29 -2.6070001 -1.1569999 0.44222179 -0.032022327 -0.41284129 0.60582459
-11.322 -2.652 -1.1619999 0.44432116 -0.052754827 -0.41013467 0.60697186
-11.314 -2.687 -1.1619999 0.44488007 -0.065561876 -0.41635382 0.61283535
-11.309 -2.724 -1.1619999 0.44114685 -0.08707951 -0.41478515 0.61175168
-11.272 -2.7520001 -1.159 0.44007686 -0.099452093 -0.41913205 0.61581659
-11.263 -2.7880001 -1.159 0.43595362 -0.12184542 -0.42071995 0.61798638
-11.27 -2.8080001 -1.16 0.43518189 -0.12370986 -0.41835088 0.61620194
-11.279 -2.848 -1.1619999 0.43402958 -0.13548236 -0.42551935 0.62273902
-11.273 -2.8840001 -1.1619999 0.43099642 -0.14143501 -0.41061771 0.61185676
-11.31 -2.9319999 -1.168 0.41755223 -0.18839264 -0.41357991 0.61716282
-11.297 -2.9660001 -1.168 0.40153942 -0.21524554 -0.38717979 0.5978902
-11.315 -3.0090001 -1.171 0.39259583 -0.24213989 -0.39643836 0.60821587
-11.351 -3.0569999 -1.176 0.37371781 -0.28132364 -0.39616913 0.61299098
-11.719 -1.6619999 -1.2539999 0.27457473 0.32746142 -0.38649508 0.57619506
-11.7 -1.696 -1.252 0.28920963 0.30728504 -0.37924382 0.56735539
-11.703 -1.734 -1.253 0.29767114 0.29697555 -0.3728072 0.56194997
-11.691 -1.77 -1.252 0.31798711 0.27731603 -0.37924486 0.56731534
-11.644 -1.8 -1.247 0.33179682 0.26228553 -0.38336512 0.57083416
-11.57 -1.826 -1.239 0.34549579 0.24614473 -0.38621151 0.57368451
-11.508 -1.853 -1.232 0.35571149 0.22412516 -0.37505496 0.56340837
-11.505 -1.8710001 -1.232 0.35806462 0.22478721 -0.37804773 0.56715047
-11.444 -1.898 -1.225 0.36092141 0.2195777 -0.37189573 0.56283665
-11.704 -1.98 -1.258 0.38149545 0.18774031 -0.3808457 0.57081401
-11.473 -1.977 -1.23 0.38267544 0.18303812 -0.38109893 0.57024544
-11.447 -2.01 -1.228 0.39660078 0.16473171 -0.39803287 0.58554155
-11.491 -2.0550001 -1.234 0.40192372 0.1561553 -0.410974 0.59567338
-11.514 -2.096 -1.238 0.40858904 0.14574815 -0.42563719 0.60774547
-11.519 -2.1159999 -1.239 0.40753031 0.1461435 -0.42700377 0.60808808
-11.485 -2.1470001 -1.235 0.41795146 0.13033457 -0.44586378 0.62487203
-11.453 -2.178 -1.232 0.42523637 0.11400951 -0.45603961 0.633874
-11.413 -2.207 -1.228 0.4279623 0.10764634 -0.46731776 0.6427483
-11.38 -2.2379999 -1.225 0.43256855 0.091768645 -0.47177798 0.64661545
-11.352 -2.27 -1.222 0.43439212 0.085708275 -0.48079664 0.65361136
-11.339 -2.3039999 -1.221 0.43486437 0.089923635 -0.48406982 0.65689945
-11.339 -2.323 -1.222 0.43618163 0.084928855 -0.48837143 0.66028327
-11.326 -2.3570001 -1.221 0.43748581 0.07967931 -0.49193716 0.66313255
-11.326 -2.3940001 -1.222 0.44065553 0.062818646 -0.47444919 0.65055782
-11.311 -2.428 -1.221 0.44224513 0.052203689 -0.46690747 0.6452198
-11.305 -2.464 -1.221 0.44175631 0.05471142 -0.47671485 0.65222621
-11.303 -2.5009999 -1.222 0.44400734 0.046174817 -0.4772526 0.65348655
-11.299 -2.5369999 -1.222 0.44436902 0.033921726 -0.49782664 0.66816604
-11.299 -2.556 -1.223 0.44460139 0.031940691 -0.50095874 0.67055964
-11.289 -2.5910001 -1.223 0.447119 0.017546317 -0.48632541 0.66085982
-11.281 -2.6270001 -1.223 0.44962084 -0.019369692 -0.46937218 0.65026486
-11.288 -2.6659999 -1.225 0.44899353 -0.057739746 -0.44208494 0.63274652
-11.279 -2.701 -1.225 0.44573852 -0.074695759 -0.43588296 0.62789828
-11.282 -2.7390001 -1.226 0.44398904 -0.091641605 -0.43891639 0.63100874
-11.268 -2.773 -1.225 0.43970087 -0.11023625 -0.43081698 0.6253736
-11.283 -2.796 -1.228 0.43870664 -0.11700699 -0.43295765 0.62738067
-11.286 -2.8340001 -1.229 0.43665907 -0.12845682 -0.43296611 0.62819737
-11.298 -2.875 -1.232 0.43640044 -0.13815039 -0.44196486 0.63628906
-11.321 -2.9189999 -1.2359999 0.42920071 -0.16387853 -0.43840951 0.63503724
-11.32 -2.957 -1.237 0.42059597 -0.19414082 -0.44995785 0.64579695
-11.333 -2.9979999 -1.24 0.39754897 -0.2514621 -0.45656735 0.65553957
-11.368 -3.046 -1.2460001 0.37455192 -0.2959356 -0.45331126 0.65829939
-11.68 -1.5880001 -1.308 0.27363873 0.32766899 -0.4004657 0.58533573
-11.6 -1.615 -1.299 0.28691384 0.31414506 -0.39782056 0.58246708
-11.546 -1.6440001 -1.2920001 0.29627797 0.30900592 -0.40379217 0.58848399
-11.519 -1.677 -1.29 0.3203789 0.28402278 -0.40965217 0.59255928
-11.492 -1.71 -1.2869999 0.32130304 0.28349319 -0.4108445 0.59363055
-11.468 -1.725 -1.284 0.33737606 0.26416972 -0.41102728 0.59376061
-11.441 -1.758 -1.281 0.34255654 0.2554158 -0.40716565 0.59022546
-11.426 -1.7920001 -1.28 0.35651112 0.23997095 -0.41084233 0.59453988
-11.408 -1.826 -1.278 0.36874929 0.22279936 -0.41576979 0.59873205
-11.389 -1.86 -1.277 0.38227442 0.20336425 -0.42784041 0.60871845
-11.385 -1.896 -1.277 0.39513117 0.18217139 -0.43906567 0.6181373
-11.357 -1.928 -1.274 0.40161708 0.17204401 -0.43782476 0.61853534
-11.352 -1.946 -1.274 0.40409324 0.16757974 -0.441506 0.62153184
-11.326 -1.978 -1.271 0.41730154 0.14491312 -0.44212011 0.62498844
-11.318 -2.013 -1.271 0.42300802 0.13357508 -0.45688924 0.63680911
-11.318 -2.05 -1.272 0.42023337 0.12528482 -0.43782499 0.61966372
-11.294 -2.082 -1.27 0.43199661 0.11005954 -0.46140417 0.64158243
-11.285 -2.1170001 -1.2690001 0.429472 0.11728102 -0.45738396 0.6382798
-11.275 -2.152 -1.2690001 0.43338066 0.10930486 -0.46938378 0.64814156
-11.279 -2.171 -1.27 0.43719921 0.097956747 -0.48409253 0.65960914
-11.266 -2.2060001 -1.2690001 0.43818152 0.09488 -0.49915853 0.67094296
-11.255 -2.24 -1.2690001 0.43910515 0.091123372 -0.49570802 0.66846335
-11.248 -2.276 -1.2690001 0.43646729 0.1008871 -0.50470507 0.67484003
-11.243 -2.3110001 -1.2690001 0.43558916 0.104021 -0.50507373 0.67502427
-11.267 -2.3529999 -1.273 0.43777478 0.092043363 -0.50847793 0.67725074
-11.269 -2.3900001 -1.274 0.4385342 0.079260364 -0.4864867 0.65974522
-11.267 -2.4089999 -1.274 0.44122368 0.065809086 -0.47817063 0.65395439
-11.227 -2.437 -1.27 0.44520637 0.048603356 -0.45888889 0.64120978
-11.199 -2.4679999 -1.268 0.44853702 0.035047121 -0.48603326 0.66230059
-11.157 -2.4949999 -1.263 0.45032215 0.013858812 -0.47451702 0.65433055
-11.395 -2.586 -1.295 0.45138276 0.020813989 -0.51544923 0.68546879
-11.199 -2.579 -1.271 0.45214081 -0.0059424415 -0.49412352 0.6697945
-11.199 -2.6159999 -1.272 0.4524157 -0.014337914 -0.49436709 0.67028677
-11.202 -2.6530001 -1.273 0.45257735 -0.035640363 -0.50569236 0.67957431
-11.192 -2.6700001 -1.272 0.45209268 -0.042839926 -0.51638132 0.68765742
-11.205 -2.71 -1.275 0.45212013 -0.057378057 -0.5046398 0.67997515
-11.198 -2.7460001 -1.275 0.45041662 -0.077266872 -0.48948553 0.66965765
-11.199 -2.783 -1.277 0.44765121 -0.09627521 -0.4861531 0.66783631
-11.204 -2.822 -1.278 0.44905716 -0.10367074 -0.48661935 0.67022264
-11.202 -2.859 -1.279 0.4470945 -0.12397186 -0.49821058 0.68079096
-11.241 -2.9059999 -1.286 0.436039 -0.15470107 -0.46478277 0.65580899
-11.233 -2.9230001 -1.285 0.43675548 -0.15761296 -0.47540143 0.66453266
-11.254 -2.9660001 -1.289 0.41356248 -0.22298016 -0.47133771 0.66551733
-11.322 -3.0220001 -1.3 0.3848196 -0.27898166 -0.48819512 0.68135995
-11.335 -3.0639999 -1.303 0.34822375 -0.33696461 -0.49840209 0.69513279
-11.781 -1.613 -1.405 0.274239 0.32884392 -0.39030287 0.57938045
-11.684 -1.637 -1.392 0.30023897 0.30517998 -0.40066573 0.58635426
-11.628 -1.666 -1.385 0.31375119 0.29384294 -0.41510737 0.59757644
-11.591 -1.698 -1.381 0.32515046 0.28145522 -0.41658443 0.59873402
-11.574 -1.732 -1.3789999 0.33082563 0.27550384 -0.41957644 0.60115916
-11.559 -1.767 -1.378 0.34919396 0.25288412 -0.42568699 0.60588467
-11.538 -1.801 -1.376 0.35351047 0.24906167 -0.42698011 0.60771161
-11.515 -1.816 -1.373 0.35775667 0.24138033 -0.43181473 0.61050659
-11.496 -1.85 -1.3710001 0.35805789 0.23939343 -0.42949149 0.60825783
-11.482 -1.885 -1.37 0.37870952 0.21198174 -0.44033682 0.61826664
-11.474 -1.921 -1.37 0.39521208 0.18503289 -0.46049002 0.63441378
-11.458 -1.955 -1.369 0.40752846 0.16260643 -0.4726634 0.64492714
-11.454 -1.9910001 -1.369 0.41230938 0.15172175 -0.47825396 0.64941925
-11.434 -2.0250001 -1.367 0.42228538 0.12504001 -0.47293657 0.64624214
-11.474 -2.0510001 -1.373 0.4257713 0.11678474 -0.50258052 0.66895968
-11.401 -2.0739999 -1.364 0.43113387 0.10104065 -0.49841812 0.666713
-11.383 -2.108 -1.362 0.43326327 0.094963513 -0.49904659 0.66766953
-11.349 -2.1389999 -1.358 0.43582398 0.08433263 -0.51368469 0.67891568
-11.334 -2.1730001 -1.357 0.43507648 0.086389408 -0.51994467 0.68344504
-11.331 -2.2090001 -1.358 0.43558604 0.083365716 -0.52409816 0.6865595
-11.32 -2.244 -1.357 0.43925238 0.069020271 -0.531331 0.69283408
-11.393 -2.277 -1.368 0.43572485 0.074625894 -0.54918057 0.70499963
-11.327 -2.3010001 -1.36 0.43894982 0.0719117 -0.55007499 0.70741129
-11.314 -2.335 -1.359 0.43922481 0.071683623 -0.54795474 0.70591176
-11.338 -2.3770001 -1.363 0.43745294 0.063894987 -0.55468071 0.70930833
-11.289 -2.404 -1.358 0.43940231 0.060120493 -0.55322409 0.70904565
-11.344 -2.4530001 -1.3660001 0.44028139 0.045810673 -0.55850786 0.71265513
-11.291 -2.4790001 -1.36 0.44384617 0.032834351 -0.54611522 0.70449936
-11.286 -2.4960001 -1.36 0.44474971 0.024147958 -0.54788017 0.70608646
-11.418 -2.6010001 -1.38 0.44808015 0.027851773 -0.55107987 0.71080273
-11.356 -2.6240001 -1.373 0.45184273 0.010620629 -0.53647125 0.70148134
-11.363 -2.664 -1.375 0.4516384 -0.0018340722 -0.52286416 0.69091791
-11.415 -2.714 -1.383 0.45327979 -0.051997468 -0.5119136 0.68572724
-11.545 -2.783 -1.402 0.42288038 -0.14654915 -0.60920835 0.75593603
-11.394 -2.766 -1.382 0.44755247 -0.097913094 -0.48279178 0.66556597
-11.354 -2.7939999 -1.378 0.44308338 -0.11400749 -0.47058859 0.65633392
-11.348 -2.8299999 -1.378 0.43715882 -0.12649722 -0.43355685 0.62855464
-11.367 -2.8729999 -1.382 0.42082953 -0.19098926 -0.4510681 0.6457839
-11.358 -2.9089999 -1.382 0.40124419 -0.24387026 -0.47223657 0.6659407
-11.366 -2.9489999 -1.385 0.40069628 -0.24632713 -0.49186409 0.68056214
-11.374 -2.9890001 -1.387 0.39388174 -0.24728011 -0.5750041 0.7395404
-11.377 -3.0090001 -1.388 0.3756088 -0.27512801 -0.58940256 0.75111431
-11.431 -3.062 -1.397 -0.43254539 0.25765014 -0.35976514 0.6187973
-11.526 -3.1259999 -1.4119999 -0.3704322 0.33756846 -0.39109355 0.63570958
-11.658 -1.649 -1.4680001 0.31940109 0.28594726 -0.40371224 0.5888688
-11.606 -1.661 -1.461 0.32504115 0.2811226 -0.41474155 0.59723711
-11.567 -1.692 -1.457 0.33495477 0.27212709 -0.42658117 0.60681081
-11.54 -1.726 -1.454 0.34599194 0.26298106 -0.44106835 0.61920172
-11.507 -1.758 -1.45 0.356583 0.24782692 -0.45519978 0.62910765
-11.494 -1.793 -1.449 0.37368912 0.22286452 -0.46927914 0.63994926
-11.475 -1.827 -1.447 0.3741315 0.22198777 -0.47773534 0.64613003
-11.475 -1.864 -1.447 0.38039908 0.21186928 -0.48500863 0.65178633
-11.466 -1.881 -1.447 0.38724515 0.20479506 -0.48068017 0.65034854
-11.452 -1.915 -1.4450001 0.40282065 0.1741098 -0.51242214 0.67465186
-11.444 -1.951 -1.4450001 0.41147745 0.15061732 -0.53480399 0.69138598
-11.428 -1.985 -1.444 0.41592681 0.13387626 -0.55341989 0.70511812
-11.427 -2.096 -1.446 0.42878678 0.081008196 -0.57773209 0.72401297
-11.47 -2.1229999 -1.4529999 0.43139669 0.072495833 -0.57375789 0.72149628
-11.381 -2.1429999 -1.441 0.43244612 0.07025677 -0.57803202 0.72530454
-11.373 -2.1789999 -1.441 0.43233374 0.073202364 -0.57490933 0.72304344
-11.378 -2.217 -1.443 0.43160826 0.06825868 -0.57888788 0.72529727
-11.374 -2.253 -1.443 0.43299079 0.071245424 -0.57955986 0.72694331
-11.377 -2.2909999 -1.4450001 0.4323267 0.073935635 -0.57970011 0.72692853
-11.395 -2.332 -1.448 0.43345237 0.074006721 -0.56798249 0.71830499
-11.409 -2.3529999 -1.451 0.43393767 0.067602366 -0.57356387 0.72239012
-11.339 -2.3759999 -1.442 0.4343262 0.067851871 -0.57148665 0.72099942
-11.338 -2.4130001 -1.443 0.4352648 0.065359846 -0.56873256 0.71915513
-11.322 -2.447 -1.442 0.43723544 0.053510938 -0.57081848 0.72102153
-11.318 -2.483 -1.442 0.43963462 0.045902777 -0.56587529 0.71805328
-11.308 -2.5190001 -1.442 0.44184786 0.036683083 -0.55899107 0.71347475
-11.328 -2.5599999 -1.446 0.44671401 0.028320618 -0.55892491 0.71606743
-11.368 -2.5880001 -1.452 0.44769442 0.025758011 -0.55673575 0.71487653
-11.373 -2.6270001 -1.454 0.44938415 0.025536181 -0.54881191 0.70978361
-11.371 -2.664 -1.455 0.4517867 0.010609223 -0.53718621 0.70199203
-11.399 -2.7079999 -1.46 0.45298269 -0.019487303 -0.54114306 0.70598078
-11.412 -2.7490001 -1.4630001 0.45466116 -0.041024145 -0.50849771 0.68335181
-11.326 -2.766 -1.452 0.45184073 -0.010702015 -0.48316079 0.66160327
-11.309 -2.8 -1.451 0.44930997 -0.059956618 -0.45859557 0.64481324
-11.305 -2.8180001 -1.451 0.44766721 -0.045714192 -0.43497819 0.62586081
-11.31 -2.8559999 -1.4529999 0.4418135 -0.085098356 -0.41744235 0.61375815
-11.326 -2.898 -1.457 0.42026156 -0.18342307 -0.41929507 0.62134707
-11.32 -2.9349999 -1.457 0.40037522 -0.23122972 -0.41477382 0.6211319
-11.376 -2.987 -1.467 0.35711583 -0.31827885 -0.49029243 0.68499619
-11.552 -3.072 -1.494 -0.40704927 0.22784394 -0.25700095 0.53258938
-11.583 -3.119 -1.5 -0.37912047 0.30469754 -0.3235175 0.58415455
-11.591 -3.141 -1.502 -0.35705841 0.33561155 -0.34524125 0.59943086
-11.604 -3.1830001 -1.505 -0.35978043 0.23658408 -0.20803192 0.47821677
-11.754 -1.638 -1.535 0.2350767 0.37163678 -0.52373987 0.68387014
-11.649 -1.66 -1.521 0.2815567 0.33216131 -0.53333396 0.68851322
-11.631 -1.676 -1.518 0.28377801 0.33026844 -0.53596699 0.69055617
-11.578 -1.706 -1.511 0.34873751 0.25469813 -0.42756692 0.60770261
-11.563 -1.7410001 -1.51 0.36330351 0.24125716 -0.46654117 0.63863534
-11.55 -1.776 -1.5089999 0.37360042 0.22723535 -0.51856941 0.6783269
-11.538 -1.811 -1.508 0.37862837 0.21522874 -0.54681486 0.69906318
-11.503 -1.842 -1.5039999 0.38544944 0.19806184 -0.54526418 0.69650042
-11.488 -1.877 -1.502 0.3894985 0.18914828 -0.56323385 0.71043545
-11.506 -1.899 -1.505 0.39955416 0.1660365 -0.56978512 0.71544862
-11.469 -1.929 -1.501 0.40619946 0.14830323 -0.58291644 0.72579849
-11.441 -1.962 -1.497 0.41345733 0.12625822 -0.58604866 0.72824526
-11.458 -2.0020001 -1.501 0.41810158 0.10892902 -0.59112078 0.73218727
-11.435 -2.0350001 -1.498 0.42315021 0.082606897 -0.60693222 0.74447751
-11.422 -2.069 -1.497 0.42709193 0.073915213 -0.59837782 0.73886871
-11.441 -2.1099999 -1.501 0.424716 0.074206933 -0.60598844 0.74371523
-11.5 -2.1400001 -1.51 0.42718947 0.075687729 -0.60397482 0.74364311
-11.518 -2.181 -1.5140001 0.42681393 0.076616824 -0.60136247 0.74140209
-11.541 -2.223 -1.5190001 0.42692438 0.086733654 -0.59761661 0.73954904
-11.545 -2.2609999 -1.52 0.4288547 0.060581606 -0.61382687 0.75124556
-11.526 -2.2950001 -1.5190001 0.42934641 0.06940344 -0.6099925 0.74916357
-11.529 -2.3329999 -1.52 0.42889261 0.071973421 -0.60938168 0.74864882
-11.514 -2.368 -1.5190001 0.43433687 0.059929349 -0.59105557 0.73592573
-11.479 -2.3789999 -1.5140001 0.43051094 0.070646986 -0.59909087 0.74110764
-11.487 -2.4189999 -1.517 0.43487832 0.035837412 -0.60736269 0.74785888
-11.419 -2.4419999 -1.508 0.43151319 0.054848336 -0.60863173 0.74809396
-11.352 -2.4649999 -1.499 0.43590859 0.04707244 -0.59973192 0.74290675
-11.342 -2.5 -1.498 0.43566307 0.046387244 -0.60300368 0.74536401
-11.313 -2.5309999 -1.495 0.43819582 0.041602757 -0.59393823 0.73926246
-11.307 -2.5669999 -1.495 0.44083583 0.038056467 -0.58849984 0.73628569
-11.322 -2.589 -1.498 0.44217208 0.034694858 -0.59017861 0.73826194
-11.32 -2.6259999 -1.499 0.44470948 0.034884162 -0.56458914 0.71954453
-11.311 -2.661 -1.499 0.44596517 0.030882491 -0.55852175 0.71539164
-11.432 -2.7279999 -1.5190001 0.4522236 -0.0055724829 -0.53458583 0.70022798
-11.787 -3.069 -1.581 -0.32859302 0.14488867 -0.12151325 0.37911946
-11.628 -3.0669999 -1.558 -0.3439686 0.021783894 -0.09503296 0.35751951
-11.626 -3.105 -1.5599999 -0.33313191 -0.028281027 -0.084409297 0.34482113
-11.611 -3.1400001 -1.559 -0.33177879 -0.027858416 -0.084753186 0.34356421
-11.617 -3.161 -1.5599999 -0.34336907 0.22144735 -0.178848 0.44601327
-11.702 -1.6619999 -1.613 0.36191687 0.22474763 -0.61821651 0.75079089
-11.634 -1.6900001 -1.603 0.34029013 0.25473809 -0.60218501 0.73709947
-11.603 -1.722 -1.6 0.33336589 0.25699314 -0.61956215 0.74902308
-11.559 -1.735 -1.5930001 0.33485338 0.2550776 -0.62414205 0.75282449
-11.54 -1.7690001 -1.591 0.34984627 0.23258011 -0.62865222 0.75610149
-11.531 -1.804 -1.59 0.35519388 0.21585026 -0.64316517 0.76577771
-11.49 -1.835 -1.585 0.37743407 0.16904682 -0.64509273 0.76627535
-11.492 -1.872 -1.586 0.38066238 0.15915789 -0.65370417 0.77302277
-11.464 -1.905 -1.5829999 0.38663474 0.14729725 -0.65500069 0.7747314
-11.445 -1.939 -1.581 0.39791548 0.12046127 -0.65145648 0.77281511
-11.422 -1.9529999 -1.5779999 0.40640262 0.099333763 -0.64966291 0.77271736
-11.428 -1.9910001 -1.58 0.41349381 0.075275131 -0.64856535 0.77283925
-11.404 -2.0239999 -1.577 0.42012009 0.070656098 -0.63049191 0.76092917
-11.397 -2.0599999 -1.577 0.42663181 0.057140883 -0.61941427 0.75429028
-11.41 -2.099 -1.58 0.41939223 0.056792218 -0.64150351 0.76853234
-11.401 -2.1900001 -1.581 0.41521004 0.066347376 -0.64719117 0.77178866
-11.729 -3.046 -1.659 0.27374613 0.17978406 -0.82124913 0.88414329
-11.669 -3.0699999 -1.651 -0.34131378 -0.1016558 -0.098618925 0.36953306
-11.656 -3.1059999 -1.65 -0.33877316 0.20243147 -0.15819502 0.42517224
-11.646 -3.142 -1.65 -0.32157314 0.2291289 -0.16577166 0.42824009
-11.651 -3.1830001 -1.653 -0.31842721 0.062699161 -0.085681289 0.33566105
-11.912 -1.723 -1.786 0.42588562 -0.015058639 -0.66738319 0.79183686
-11.872 -1.755 -1.78 0.40139782 0.019118432 -0.72323012 0.82737386
-11.88 -1.776 -1.7819999 0.38605705 0.033435728 -0.74189252 0.83699608
-11.861 -1.811 -1.78 -0.38654223 -0.056867689 -0.13344187 0.41286263
-11.662 -2.062 -1.755 0.3432087 0.089659065 -0.79049283 0.86643511
-11.599 -2.089 -1.7460001 0.40254906 0.058665261 -0.69476974 0.80510396
-11.58 -2.1229999 -1.744 0.40442529 0.035311013 -0.69963497 0.80888551
-11.568 -2.158 -1.743 0.41077083 0.044690922 -0.67750496 0.79356343
-11.526 -2.188 -1.738 0.41867417 0.03687514 -0.66485173 0.7865594
-11.517 -2.2049999 -1.737 0.41989899 0.060500268 -0.64982605 0.77604723
-11.491 -2.237 -1.734 0.41632476 0.058108073 -0.66163677 0.78387886
-11.464 -2.2690001 -1.7309999 0.42005676 0.086047903 -0.63108557 0.76296848
-11.461 -2.306 -1.7309999 0.4239634 0.095041014 -0.60708529 0.74654561
-11.442 -2.3399999 -1.729 0.42126194 0.11470702 -0.59396237 0.7371639
-11.436 -2.3759999 -1.73 0.41775766 0.12977059 -0.58713722 0.73218304
-11.408 -2.4070001 -1.726 0.41818473 0.13870074 -0.56641465 0.71759456
-11.406 -2.4260001 -1.726 0.41896749 0.13761601 -0.56371939 0.71571749
-11.39 -2.46 -1.725 0.42129189 0.13451792 -0.55079108 0.70636588
-11.363 -2.4909999 -1.722 0.41728017 0.15281221 -0.51128989 0.67741543
-11.352 -2.526 -1.721 0.420941 0.14462417 -0.49152258 0.66310024
-11.33 -2.559 -1.719 0.41742483 0.16030507 -0.46815774 0.64738929
-11.307 -2.5910001 -1.717 0.42122263 0.14772525 -0.42427188 0.61583918
-11.295 -2.625 -1.716 0.40960789 0.15119681 -0.38017514 0.57894063
-11.294 -2.6440001 -1.717 0.40360048 0.15738675 -0.36660942 0.56750894
-11.259 -2.6730001 -1.712 0.39475933 0.16574021 -0.34963661 0.5527662
-11.245 -2.707 -1.711 0.38995364 0.13680933 -0.30768597 0.51521963
-11.242 -2.744 -1.712 0.37318504 0.14849456 -0.28255785 0.49107704
-11.203 -2.7709999 -1.707 0.36903968 0.15569814 -0.27952355 0.48843181
-11.18 -2.803 -1.705 0.36123887 0.14284612 -0.25397161 0.46411219
-11.177 -2.8399999 -1.706 0.3488884 0.16536923 -0.25075042 0.46037579
-11.161 -2.8540001 -1.704 0.34414732 0.16343848 -0.24195963 0.4513247
-11.139 -2.8859999 -1.702 0.34127453 0.16382971 -0.24094036 0.44873238
-11.126 -2.9200001 -1.701 0.32564089 0.16994897 -0.22302073 0.42972419
-11.1 -2.95 -1.699 0.3157033 0.17957178 -0.21841419 0.42381525
-11.092 -2.9849999 -1.699 0.31298053 0.18219456 -0.21682635 0.42209634
-11.083 -3.02 -1.699 0.29673469 0.1817559 -0.19398892 0.39839476
-11.058 -3.0510001 -1.696 0.27394858 0.17664476 -0.16816875 0.36678594
-11.048 -3.0669999 -1.6950001 0.30560654 0.20120545 -0.22030821 0.42710033
-10.82 -3.391 -1.675 0.30893436 0.20910425 -0.74530125 0.83345002
-11.787 -1.381 -1.876 0.45183358 -0.023469212 -0.57547075 0.73203206
-11.798 -1.42 -1.8789999 0.45792618 -0.031009741 -0.50763929 0.68436515
-11.776 -1.455 -1.876 0.44254252 -0.03635468 -0.61732686 0.76043278
-11.785 -1.494 -1.878 0.4471032 -0.022453746 -0.59877974 0.74762464
-11.779 -1.53 -1.878 0.40916055 -0.073198006 -0.7105962 0.82323587
-11.76 -1.566 -1.876 0.40394562 -0.051948436 -0.72280145 0.82964611
-11.761 -1.603 -1.877 0.41167021 -0.019710852 -0.70538181 0.81696045
-11.755 -1.6210001 -1.876 0.3967132 -0.014571181 -0.73478037 0.83516216
-11.755 -1.659 -1.877 0.39398709 0.044649202 -0.72480518 0.82617307
-11.742 -1.6950001 -1.876 0.39475921 0.039703649 -0.72519058 0.82662725
-11.741 -1.732 -1.876 0.35837695 0.11672655 -0.7482208 0.83779085
-11.725 -1.768 -1.875 0.35153005 0.11913154 -0.75731719 0.84338307
-11.73 -1.806 -1.876 0.34023273 0.13766059 -0.76420557 0.8477729
-11.728 -1.8430001 -1.877 0.33206445 0.12567241 -0.78285527 0.85960615
-11.715 -1.86 -1.875 0.31448358 0.088088602 -0.82208556 0.88458133
-11.727 -1.9 -1.878 0.30605844 0.10300171 -0.82383817 0.88486749
-11.697 -1.933 -1.874 0.29461452 0.11438482 -0.82864463 0.88686728
-11.664 -1.965 -1.87 0.28314596 0.13148828 -0.83200026 0.88864237
-11.539 -1.982 -1.849 0.35343242 0.11351307 -0.75276244 0.83931577
-11.453 -2.0039999 -1.836 0.37854666 0.083710998 -0.72239786 0.81985593
