# .PCD v0.7 - Point Cloud Data file format
VERSION 0.7
FIELDS x y z normal_x normal_y normal_z curvature
SIZE 4 4 4 4 4 4 4
TYPE F F F F F F F
COUNT 1 1 1 1 1 1 1
WIDTH 90
HEIGHT 1
VIEWPOINT 0 0 0 1 0 0 0
POINTS 90
DATA ascii
-7.5159998 18.837999 0.046 0.50261664 -0.053049445 -0.57442772 0.76511759
-7.5380001 18.721001 0.046999998 0.50732785 -0.036613852 -0.57840145 0.77024049
-7.5289998 18.530001 0.048 0.5098688 -0.01995058 -0.56633216 0.76229674
-7.5339999 18.377001 0.048999999 0.51120847 -0.01183393 -0.55695319 0.75608927
-7.5170002 18.252001 0.050000001 0.50930196 -0.0072032353 -0.57185817 0.76580817
-7.54 18.146 0.050999999 0.50886959 -0.0075477264 -0.57475692 0.76769185
-7.5469999 18.002001 0.052000001 0.5093379 -0.0043332241 -0.57162029 0.76563281
-7.5549998 17.555 0.055 0.51251298 -0.011873864 -0.54045606 0.74491829
-7.5279999 18.830999 -0.079000004 0.51034671 -0.037487701 -0.558447 0.7574445
-7.5320001 18.67 -0.077 0.51219368 -0.019661879 -0.54592854 0.74884373
-7.5409999 18.525999 -0.075000003 0.51192766 -0.014914121 -0.54983836 0.7514084
-7.5440001 18.368999 -0.072999999 0.51200384 -0.01059011 -0.54970497 0.75128931
-7.5539999 18.229 -0.071000002 0.51234859 -0.0062077157 -0.54641324 0.74907076
-7.5310001 18.096001 -0.068999998 0.51292723 0.0036022724 -0.5387097 0.74385178
-7.526 17.924 -0.067000002 0.52395874 0.0083078668 -0.53778511 0.75087589
-7.5689998 17.563 -0.063000001 0.51378906 -0.011645231 -0.52068579 0.73159313
-7.559 17.389 -0.059999999 0.51177096 0.02641239 -0.51621228 0.72738039
-7.5310001 18.962999 -0.223 0.51221001 -0.055934716 -0.53703767 0.74424273
-7.5289998 18.785 -0.219 0.51331013 -0.031024216 -0.5293445 0.73800772
-7.5510001 18.67 -0.21699999 0.51358515 -0.018680567 -0.52753532 0.73648638
-7.5739999 18.556999 -0.215 0.51363122 -0.02077047 -0.52557015 0.73516834
-7.5539999 18.343 -0.211 0.51365846 -0.015242906 -0.52763283 0.73652822
-7.5630002 18.201 -0.208 0.51352012 -0.00095270341 -0.53119618 0.73883235
-7.5700002 18.056999 -0.205 0.51342189 0.0010048421 -0.53238666 0.73962057
-7.5440001 17.605 -0.197 0.51390761 -0.011341229 -0.51840925 0.73005331
-7.5830002 18.886 -0.32600001 0.51616371 -0.040457126 -0.51479256 0.73011857
-7.5910001 18.736 -0.322 0.5153389 -0.02405848 -0.50551647 0.72228795
-7.6009998 18.594 -0.31900001 0.51437068 -0.017548844 -0.50368309 0.72012627
-7.5700002 18.434 -0.315 0.51431489 -0.019022027 -0.50555241 0.72143251
-7.5830002 18.302999 -0.31200001 0.51439279 -0.0045538554 -0.51145107 0.72539842
-7.5970001 18.176001 -0.30899999 0.51410848 0.0052660438 -0.5172292 0.72928822
-7.5900002 18.000999 -0.30500001 0.51384747 0.013258792 -0.51790893 0.72968811
-7.5929999 17.545 -0.294 0.49667418 0.012046611 -0.49177498 0.6990515
-7.54 18.723 -0.442 0.51428938 -0.023149136 -0.48413557 0.70669419
-7.5479999 18.573 -0.43700001 0.5140115 -0.011487576 -0.47777495 0.7018609
-7.552 18.416 -0.433 0.51365209 -0.011909459 -0.47082815 0.69689274
-7.5599999 18.271999 -0.42899999 0.5135057 -0.01076835 -0.46819332 0.69498849
-7.539 18.139999 -0.42399999 0.51405132 -0.0062156767 -0.47788495 0.70189846
-7.539 17.98 -0.41999999 0.5062325 0.037946876 -0.48995462 0.70552593
-7.5619998 17.566 -0.40799999 0.49655813 0.011008386 -0.48675022 0.69542575
-7.598 16.700001 -0.38299999 0.45965743 -0.093876801 -0.56333166 0.73310322
-7.5469999 18.863001 -0.579 0.52105689 -0.0089282505 -0.46544099 0.69872403
-7.553 18.707001 -0.574 0.51313466 -0.0059833652 -0.46242547 0.69078237
-7.546 18.523001 -0.56699997 0.51271957 -0.0051748981 -0.4572432 0.68700767
-7.566 18.406 -0.56300002 0.51247668 -0.010921178 -0.45480728 0.6852746
-7.5669999 18.246 -0.55699998 0.51275462 -0.014319919 -0.4585816 0.68805486
-7.5840001 18.124001 -0.55299997 0.51199836 -0.013570201 -0.45014817 0.68187964
-7.5770001 17.952 -0.54699999 0.50471967 -0.0005140435 -0.4480074 0.67487246
-7.5739999 17.558001 -0.53299999 0.49195221 0.042520948 -0.47178906 0.68294209
-7.5440001 18.761999 -0.69599998 0.51207554 -0.00047666486 -0.45053062 0.68205529
-7.5219998 18.624001 -0.69 0.51187468 -0.0027299647 -0.44836801 0.68048292
-7.5289998 18.473 -0.68400002 0.51165712 -0.01156829 -0.44657245 0.67923027
-7.5349998 18.323999 -0.67799997 0.51183611 -0.014890883 -0.44877228 0.68087775
-7.54 18.172001 -0.671 0.51242745 -0.016861901 -0.45536992 0.68573171
-7.5450001 18.023001 -0.66500002 0.50573534 -0.016154567 -0.46413413 0.68662196
-7.533 17.605 -0.648 0.48982573 0.047436483 -0.44619295 0.66427976
-7.5500002 17.490999 -0.64399999 0.48997328 0.029236177 -0.44677809 0.66373128
-7.553 17.347 -0.63800001 0.48984629 0.023099419 -0.44670621 0.66334713
-7.553 17.198 -0.63200003 0.48420873 0.044901378 -0.44030359 0.65600419
-7.5710001 16.950001 -0.62199998 0.48526898 0.0097894259 -0.47376886 0.67826158
-7.5700002 16.805 -0.616 0.47288609 -0.020214211 -0.58526731 0.75270694
-7.552 16.695 -0.611 0.4718737 -0.031498555 -0.58183384 0.74979168
-7.6129999 16.690001 -0.61199999 0.47098184 -0.036169961 -0.58233976 0.74983448
-7.6820002 16.702 -0.61400002 0.47098184 -0.036169961 -0.58233976 0.74983448
-7.717 16.639999 -0.61199999 0.45272809 -0.11091467 -0.57169211 0.73762906
-7.5289998 18.708 -0.80900002 0.51328444 -0.005211249 -0.46448216 0.69226569
-7.5349998 18.554001 -0.80199999 0.51283848 -0.0065256357 -0.45867115 0.68805897
-7.5149999 18.424 -0.796 0.51189804 -0.010174603 -0.4487294 0.68080926
-7.5139999 18.257999 -0.78799999 0.51259792 -0.021170456 -0.45871821 0.68820578
-7.5209999 18.113001 -0.78100002 0.51334441 -0.02783075 -0.47353759 0.69895273
-7.5339999 17.983999 -0.77600002 0.50030744 -0.021765262 -0.4802075 0.69381589
-7.5489998 17.555 -0.75599998 0.49078521 0.027087878 -0.45565009 0.67023945
-7.5190001 18.452999 -0.92400002 0.51222044 1.9214582e-05 -0.45207286 0.68318349
-7.5279999 18.309 -0.91600001 0.51277548 -0.016493704 -0.45936298 0.68864006
-7.507 18.177 -0.90899998 0.51284093 -0.03099186 -0.46753132 0.69465953
-7.5139999 18.033001 -0.90200001 0.50380325 -0.046050929 -0.46720821 0.68863773
-7.5240002 17.584999 -0.87900001 0.48932934 0.079557121 -0.46021184 0.67643732
-7.5869999 16.636 -0.83099997 0.44263908 -0.14427705 -0.537911 0.71140248
-7.5549998 18.035 -1.007 0.51197928 -0.054908376 -0.51008958 0.72479594
-7.573 17.919001 -1.001 0.50108236 0.0025371891 -0.52547735 0.72609669
-7.5869999 16.698999 -0.93199998 0.44260809 -0.14484419 -0.5353995 0.70960158
-7.6500001 16.698 -0.93400002 -0.035435285 0.55257434 -0.52622747 0.76387787
-7.7189999 16.709 -0.93599999 -0.035435285 0.55257434 -0.52622747 0.76387787
-7.776 16.695 -0.93699998 -0.035885617 0.5515098 -0.52632958 0.76319963
-7.5469999 16.686001 -1.058 0.065307781 0.55248249 -0.50154001 0.74902898
-7.5939999 16.650999 -1.057 0.065307781 0.55248249 -0.50154001 0.74902898
-7.6589999 16.655001 -1.059 0.065307781 0.55248249 -0.50154001 0.74902898
-7.7220001 16.653999 -1.061 0.064415917 0.54781109 -0.50204593 0.74585289
-7.691 16.721001 -1.155 0.064415917 0.54781109 -0.50204593 0.74585289
-7.6890001 16.667 -1.272 0.012785858 0.55187595 -0.53378135 0.76788872
