# .PCD v0.7 - Point Cloud Data file format
VERSION 0.7
FIELDS x y z normal_x normal_y normal_z curvature
SIZE 4 4 4 4 4 4 4
TYPE F F F F F F F
COUNT 1 1 1 1 1 1 1
WIDTH 60
HEIGHT 1
VIEWPOINT 0 0 0 1 0 0 0
POINTS 60
DATA ascii
11.444 9.1280003 -0.80500001 0.47888929 -0.19852631 -0.30393195 0.60093451
11.657 9.2559996 -0.89499998 0.358906 -0.24913986 -0.18768567 0.47551036
11.476 9.1409998 -0.88 0.53874993 0.17150296 -0.67449826 0.88012081
13.121 9.6689997 -1.1059999 0.055791814 0.47378129 -0.83381701 0.96064156
13.06 9.6560001 -1.102 0.069045506 -0.23626059 -0.12923405 0.27800682
12.977 9.658 -1.097 0.032881804 -0.23608059 -0.12209842 0.26781201
12.916 9.6759996 -1.094 0.082727253 0.43836167 -0.83478296 0.94650269
12.848 9.6879997 -1.09 0.077630907 0.47806981 -0.80937976 0.94322473
12.789 9.7060003 -1.087 0.07209561 0.49680251 -0.78728712 0.93371916
12.71 9.71 -1.082 0.051722195 0.51128381 -0.76522654 0.9217689
12.628 9.71 -1.077 0.048458461 0.57043225 -0.626827 0.84891301
12.571 9.698 -1.073 0.083983041 0.58453876 -0.56369442 0.81638843
12.497 9.7040005 -1.068 0.081408627 0.53769886 -0.56774205 0.78617966
12.425 9.7110004 -1.064 0.090216376 0.52810001 -0.56083685 0.77560723
12.351 9.7159996 -1.0599999 0.086755611 0.52857667 -0.55739284 0.77305019
11.589 9.1780005 -0.98500001 0.39005762 0.081326321 -0.090236664 0.4085359
12.199 9.7209997 -1.05 0.086674467 0.54700929 -0.55538505 0.78433681
13.134 9.6700001 -1.201 0.062996864 -0.23445438 -0.12799233 0.27444398
13.043 9.6660004 -1.1950001 0.071009465 0.50525886 -0.79628092 0.94572306
11.647 8.7700005 -1.052 0.23106238 0.11893451 -0.0013226271 0.25987881
11.597 8.8470001 -1.053 0.29381368 0.065905616 -0.032521784 0.3028658
11.589 8.8990002 -1.0549999 0.38471863 0.072145954 -0.088864058 0.40138546
11.577 8.948 -1.057 0.38925555 0.058224566 -0.09098506 0.40396568
11.558 8.9619999 -1.056 0.38914609 0.058163762 -0.091015369 0.40385827
11.536 9.0039997 -1.057 0.39108014 0.044104718 -0.093166143 0.40443644
11.522 9.0509996 -1.059 0.39108014 0.044104718 -0.093166143 0.40443644
11.504 9.0959997 -1.0599999 0.39381897 0.097989418 -0.094264001 0.41663054
12.156 9.6750002 -1.135 -0.090464182 0.51335323 -0.5546785 0.76117247
13.118 9.625 -1.294 0.037592314 0.58468628 -0.688227 0.90384048
13.03 9.6239996 -1.288 0.067606755 0.57340074 -0.7195704 0.92257285
12.961 9.6359997 -1.283 0.081939317 0.57490551 -0.71236527 0.91907275
11.698 8.7580004 -1.142 0.23106238 0.11893451 -0.0013226271 0.25987881
11.646 8.7469997 -1.138 0.22473758 0.11801156 -0.0025556982 0.25385082
11.81 8.9280005 -1.16 0.26619321 0.15051448 -0.017020941 0.30627298
11.831 9.0019999 -1.165 0.18546322 0.1879548 0.0072928071 0.26415297
11.824 9.0559998 -1.168 0.35684019 0.18218349 -0.065057099 0.40590414
11.809 9.1029997 -1.169 0.3626762 0.15840715 -0.069677383 0.40184799
11.764 9.1280003 -1.168 0.57095593 0.015914813 -0.36292285 0.67672515
11.784 9.2030001 -1.173 -0.17020318 0.49068692 -0.37220693 0.63896853
11.493 9.0640001 -1.1440001 0.39108014 0.044104718 -0.093166143 0.40443644
11.88 9.4280005 -1.193 -0.2890439 0.25052392 -0.25423825 0.45928827
12.759 9.6540003 -1.3710001 0.10783561 0.61503822 -0.54202813 0.82685852
12.672 9.6499996 -1.364 0.08852911 0.58631516 -0.54173017 0.80316526
12.599 9.6569996 -1.359 0.082812436 0.58794355 -0.53743052 0.80085397
12.534 9.6700001 -1.355 0.088505268 0.58450621 -0.53749973 0.79899102
12.464 9.6470003 -1.348 0.092994086 0.57407016 -0.5295158 0.78650588
12.403 9.6630001 -1.344 0.1023408 0.58456111 -0.52607471 0.79305732
12.318 9.6590004 -1.337 0.10189274 0.54667658 -0.53100592 0.76889837
11.451 9.0930004 -1.2359999 0.28905118 0.4537462 -0.21706769 0.58013326
12.536 9.6459999 -1.451 0.094595872 0.5859223 -0.51746184 0.78741354
12.477 9.6630001 -1.447 0.10610717 0.5740183 -0.52623564 0.78592598
12.41 9.6739998 -1.442 0.10244042 0.58518732 -0.51749504 0.78787011
12.342 9.6520004 -1.4349999 0.10614652 0.5475713 -0.51563972 0.75959575
12.3 9.6820002 -1.434 0.11207179 0.54699028 -0.52132642 0.76389766
11.572 9.1700001 -1.341 0.1505515 0.51805931 -0.2513631 0.5951761
12.502 9.6689997 -1.553 0.091217265 0.57355982 -0.41499963 0.71380401
12.464 9.7019997 -1.552 0.094914429 0.57065201 -0.41486442 0.71187425
12.419 9.7299995 -1.55 0.097504169 0.52938432 -0.41911072 0.6822086
11.703 9.257 -1.455 -0.20292294 0.43882215 -0.28675091 0.5621109
11.647 9.2159996 -1.539 -0.059365213 0.54005271 -0.34804499 0.64522594
