# .PCD v0.7 - Point Cloud Data file format
VERSION 0.7
FIELDS x y z normal_x normal_y normal_z curvature
SIZE 4 4 4 4 4 4 4
TYPE F F F F F F F
COUNT 1 1 1 1 1 1 1
WIDTH 60
HEIGHT 1
VIEWPOINT 0 0 0 1 0 0 0
POINTS 60
DATA ascii
-4.9130001 14.699 -1.0420001 0.2146353 0.38750827 -0.71424532 0.84046257
-4.9549999 14.673 -1.041 0.24241722 0.39852405 -0.67481804 0.82034564
-5.0209999 14.715 -1.046 0.24947612 0.39321759 -0.68923652 0.83180851
-5.026 14.653 -1.0420001 0.25881702 0.40194765 -0.65312028 0.80939132
-5.0500002 14.573 -1.036 0.2616922 0.40345639 -0.65570128 0.81314456
-5.1389999 14.681 -1.0470001 0.27957365 0.39597189 -0.62272501 0.78913975
-5.2659998 14.746 -1.0549999 0.29394206 0.37919888 -0.6143285 0.77948266
-4.7919998 14.519 -1.113 0.20319612 0.44994605 -0.58203679 0.76322144
-4.835 14.496 -1.113 0.20766921 0.44645751 -0.58781421 0.76679617
-4.8709998 14.455 -1.11 0.21817802 0.44089246 -0.60611367 0.78061616
-4.908 14.415 -1.108 0.22552709 0.43565559 -0.62640321 0.79563767
-4.9819999 14.48 -1.115 0.2506929 0.42317596 -0.60908294 0.7828837
-5.0289998 14.542 -1.122 0.26218268 0.41713169 -0.60946643 0.78370142
-5.1030002 14.609 -1.1289999 0.26605541 0.40857917 -0.60413909 0.77634168
-5.1750002 14.664 -1.136 0.29971859 0.38781902 -0.58455753 0.76285142
-5.2449999 14.715 -1.142 0.29987755 0.38421375 -0.57484359 0.75365239
-5.329 14.804 -1.152 0.30291069 0.38551098 -0.54597014 0.7337963
-4.7750001 14.536 -1.205 0.17591435 0.46123141 -0.54650259 0.73644102
-4.8140001 14.502 -1.2029999 0.183797 0.46335739 -0.54498529 0.73857319
-4.848 14.451 -1.2 0.19538115 0.46209851 -0.54535556 0.74102736
-4.881 14.4 -1.197 0.21129833 0.45521775 -0.57125771 0.76039827
-4.9559999 14.471 -1.205 0.24547191 0.43560085 -0.56250393 0.75260562
-5.0159998 14.499 -1.209 0.25568289 0.43050647 -0.56475502 0.75475675
-5.0949998 14.579 -1.2180001 0.26710609 0.41698483 -0.55901515 0.7468065
-5.1409998 14.637 -1.225 0.27616847 0.40769452 -0.57858187 0.75976366
-5.2140002 14.696 -1.232 0.30443016 0.38283953 -0.56049573 0.74390817
-5.289 14.762 -1.24 0.30421165 0.38610676 -0.53754377 0.72840679
-4.8099999 14.471 -1.298 0.19316919 0.46122289 -0.53772122 0.73429215
-4.8540001 14.452 -1.2970001 0.20706691 0.45888993 -0.53465033 0.73437572
-4.8660002 14.412 -1.294 0.18768246 0.47046024 -0.52359015 0.72849447
-4.915 14.406 -1.295 0.21621983 0.45710218 -0.53601146 0.7368865
-4.9850001 14.464 -1.302 0.24317688 0.44279343 -0.53103244 0.73293686
-5.0619998 14.539 -1.312 0.2510494 0.43115121 -0.52303994 0.72283328
-5.1290002 14.581 -1.318 0.26597691 0.41997403 -0.54096431 0.73468649
-5.2069998 14.655 -1.327 0.30727553 0.38033411 -0.56019527 0.74356639
-5.277 14.706 -1.334 0.31026784 0.38049313 -0.5392279 0.72925162
-5.3629999 14.797 -1.346 0.31397733 0.37820768 -0.5167622 0.71320826
-4.8010001 14.5 -1.3940001 0.13848826 0.48170045 -0.48280203 0.69592535
-4.8390002 14.462 -1.392 0.17677666 0.46807548 -0.48452657 0.69649887
-4.8730001 14.413 -1.388 0.19011612 0.47058442 -0.49039769 0.70575047
-4.9169998 14.394 -1.387 0.19005525 0.47000384 -0.49040645 0.7053532
-4.9879999 14.452 -1.395 0.21584891 0.45634624 -0.49065626 0.70397884
-5.0409999 14.532 -1.405 0.24798812 0.4336569 -0.50599861 0.71104926
-5.105 14.571 -1.411 0.26190278 0.42462713 -0.48855764 0.69827628
-5.1810002 14.641 -1.421 0.2990818 0.39240596 -0.4980351 0.70105016
-5.2529998 14.698 -1.429 0.31525052 0.37777337 -0.51419932 0.71168572
-5.3379998 14.788 -1.441 0.31254023 0.38058102 -0.50168401 0.70300084
-4.7979999 14.528 -1.497 0.11029395 0.48992059 -0.48965448 0.70139033
-4.8400002 14.503 -1.4960001 0.17837828 0.4728502 -0.48280588 0.69893318
-4.8730001 14.451 -1.492 0.17918795 0.47358948 -0.46856412 0.68988961
-4.914 14.422 -1.49 0.18783532 0.47240737 -0.45481282 0.68213308
-4.9850001 14.48 -1.499 0.2191055 0.44889402 -0.45021266 0.67246151
-5.0580001 14.545 -1.508 0.2532171 0.4263773 -0.44139892 0.66388965
-5.105 14.604 -1.516 0.26063466 0.41629922 -0.43259162 0.65450054
-5.1830001 14.678 -1.527 0.29355177 0.39630011 -0.47608265 0.68547875
-5.2600002 14.748 -1.5369999 0.31182337 0.38121548 -0.49438825 0.69783866
-5.3340001 14.81 -1.546 0.32209074 0.37072384 -0.48341927 0.68911016
-4.7950001 14.516 -1.59 0.1047111 0.49060023 -0.4721531 0.6888988
-4.8109999 14.486 -1.587 0.10920356 0.4930484 -0.47220138 0.69137275
-4.8460002 14.441 -1.5829999 0.11649267 0.49312127 -0.45013812 0.67776358
