# .PCD v0.7 - Point Cloud Data file format
VERSION 0.7
FIELDS x y z normal_x normal_y normal_z curvature
SIZE 4 4 4 4 4 4 4
TYPE F F F F F F F
COUNT 1 1 1 1 1 1 1
WIDTH 667
HEIGHT 1
VIEWPOINT 0 0 0 1 0 0 0
POINTS 667
DATA ascii
-15.727 3.5580001 -0.60600001 -0.028362041 0.5267756 -0.55581707 0.76630902
-15.9 3.5439999 -0.61500001 -0.025590733 0.5242396 -0.55469579 0.7636553
-16.063999 3.527 -0.62199998 -0.013126481 0.52994198 -0.55638683 0.76849014
-16.240999 3.513 -0.63099998 -0.013529549 0.53239673 -0.5565806 0.77033192
-16.566 3.5280001 -0.64700001 0.0087921005 0.5329687 -0.57069761 0.78091532
-17.26 3.6459999 -0.68199998 -0.34671956 0.38943619 -0.41399354 0.66578197
-17.337999 3.6059999 -0.68599999 0.43114829 -0.19802263 -0.59487092 0.76090288
-17.399 3.5050001 -0.68800002 0.46134824 -0.051671527 -0.68322212 0.82601726
-17.434999 3.3410001 -0.68800002 0.46259719 -0.04678382 -0.68256843 0.8258841
-13.947 5.5320001 -0.64499998 0.47156468 0.22041941 -0.42144388 0.66975588
-13.932 5.4759998 -0.64399999 0.47022209 0.18939149 -0.41967273 0.65810573
-14 5.4510002 -0.64700001 0.4701665 0.19610569 -0.42084193 0.66077369
-14.094 5.4629998 -0.65200001 0.13271351 0.53082097 -0.49801758 0.7398684
-14.503 5.5170002 -0.67400002 0.0016370192 0.50910687 -0.45845753 0.68511003
-14.623 5.5110002 -0.68099999 -0.028652614 0.50926393 -0.43600211 0.67102057
-14.761 5.5100002 -0.68800002 -0.027376201 0.4981623 -0.43554622 0.66228062
-14.878 5.5009999 -0.69400001 -0.053818233 0.50107664 -0.48270825 0.69784057
-15.004 5.494 -0.70099998 -0.072901264 0.4980717 -0.50508898 0.71309525
-15.13 5.5139999 -0.708 -0.091480717 0.49240708 -0.51022106 0.71495384
-15.221 5.493 -0.71200001 -0.061102293 0.49318483 -0.52024066 0.71945477
-15.244 5.447 -0.71200001 -0.05307661 0.49390468 -0.52118289 0.71999347
-15.268 5.402 -0.713 -0.046859123 0.49673548 -0.52791309 0.72638428
-15.607 5.467 -0.73199999 0.021611152 0.49477535 -0.50728661 0.70894951
-15.753 5.4629998 -0.74000001 -0.016013104 0.49704239 -0.47083217 0.68482882
-15.866 5.4460001 -0.74599999 -0.01660309 0.49162036 -0.47339663 0.68269366
-13.812 4.665 -0.62099999 0.44744545 0.030974142 -0.55021238 0.70985949
-13.81 3.9030001 -0.60900003 0.43482327 -0.12352832 -0.48255652 0.66120446
-13.816 3.858 -0.60799998 0.41489482 -0.18166149 -0.4923968 0.66902405
-13.807 3.8080001 -0.60699999 0.38731247 -0.23745236 -0.4857884 0.66512024
-13.811 3.763 -0.60600001 0.31072837 -0.33947676 -0.47005966 0.65783942
-13.819 3.7420001 -0.60699999 0.31072837 -0.33947676 -0.47005966 0.65783942
-13.906 3.7190001 -0.611 -0.28433248 0.45246455 -0.51226485 0.74025965
-14.043 3.7079999 -0.61799997 -0.19319379 0.490251 -0.54022551 0.7546612
-14.168 3.694 -0.625 -0.10759763 0.5086543 -0.54968601 0.75661159
-14.281 3.6760001 -0.63099998 -0.078374565 0.50988126 -0.55029142 0.75428247
-14.408 3.6600001 -0.63800001 -0.080568179 0.51042974 -0.54725766 0.75267571
-14.534 3.6440001 -0.64399999 -0.076668806 0.51234496 -0.54476106 0.75175798
-14.654 3.6500001 -0.65100002 -0.07275448 0.51391375 -0.54402888 0.75190955
-14.781 3.6329999 -0.65799999 -0.068005733 0.51992941 -0.54573369 0.75682008
-14.932 3.6199999 -0.66600001 -0.063335955 0.52169877 -0.54680979 0.75840753
-15.072 3.6040001 -0.67299998 -0.053720172 0.52317548 -0.54648685 0.75844997
-15.205 3.586 -0.68000001 -0.044881254 0.52798486 -0.54813123 0.76238453
-15.362 3.572 -0.68900001 -0.041881271 0.52840829 -0.5475263 0.76207244
-15.508 3.5550001 -0.69700003 -0.03786156 0.52941197 -0.54525822 0.76093167
-15.661 3.5650001 -0.70499998 -0.029906308 0.52267867 -0.54555827 0.75612247
-15.838 3.553 -0.71499997 -0.019418538 0.52611494 -0.54469216 0.75753784
-15.991 3.5350001 -0.72299999 -0.023605406 0.52882075 -0.54458535 0.75946158
-16.18 3.523 -0.73299998 -0.0089007933 0.52988607 -0.54604995 0.76093954
-16.261 3.4879999 -0.73699999 -0.016912548 0.53369635 -0.54510701 0.76305926
-16.489 3.483 -0.75 0.0042228224 0.53334224 -0.55911404 0.77270973
-17.292999 3.5969999 -0.796 0.3539609 -0.30959982 -0.47788528 0.67045856
-17.412001 3.536 -0.80199999 0.40444109 -0.25532362 -0.48936477 0.68428111
-17.413 3.48 -0.801 0.40466896 -0.24803269 -0.48852089 0.68112397
-17.405001 3.223 -0.79799998 0.49206969 -0.049290411 -0.52218419 0.71919292
-13.995 5.5339999 -0.72799999 0.47131363 0.21241161 -0.40474021 0.65655911
-13.979 5.4770002 -0.72600001 0.47391701 0.18194978 -0.40392223 0.64873433
-14.047 5.4520001 -0.72899997 0.4742609 0.18153417 -0.40507686 0.64958858
-14.168 5.448 -0.736 0.12905812 0.51024055 -0.51135075 0.73381263
-13.894 5.1680002 -0.71399999 0.45333835 0.074123725 -0.41112378 0.61646795
-13.861 5.1069999 -0.71100003 0.45454594 0.060207102 -0.42694947 0.62651634
-13.883 5.0650001 -0.71200001 0.457919 0.053480562 -0.44642344 0.64175063
-15.145 5.4159999 -0.792 -0.11388026 0.4868224 -0.53663015 0.73344165
-15.258 5.4289999 -0.79900002 -0.051796015 0.4932265 -0.53505284 0.72954553
-15.317 5.3959999 -0.80199999 -0.040496584 0.4940151 -0.5345493 0.72899508
-13.824 4.6300001 -0.699 0.45065898 0.020885188 -0.51576322 0.68523091
-13.789 4.1890001 -0.68900001 0.45315859 0.0098969014 -0.48856783 0.6664452
-13.79 4.1420002 -0.68800002 0.45351228 0.00052689761 -0.49719566 0.67296153
-13.784 4.0929999 -0.68699998 0.45330697 0.0040984857 -0.48426661 0.66333866
-13.871 3.9059999 -0.68900001 0.42699459 -0.15481414 -0.48364896 0.66348183
-13.87 3.859 -0.68800002 0.38582021 -0.24029623 -0.493826 0.67116588
-13.861 3.8099999 -0.68699998 0.34271809 -0.30281457 -0.48617497 0.66747171
-13.861 3.763 -0.68599999 0.32327753 -0.32718489 -0.48779288 0.67044777
-13.867 3.7179999 -0.685 -0.32807472 0.42396933 -0.51267016 0.74176389
-13.947 3.7149999 -0.69 -0.27395952 0.45804393 -0.50601 0.73546189
-14.082 3.704 -0.69800001 -0.17931667 0.49468124 -0.52745563 0.74503249
-14.213 3.691 -0.70599997 -0.099226445 0.50715375 -0.54838389 0.75350893
-14.333 3.6730001 -0.713 -0.079180032 0.51011604 -0.54721564 0.75228506
-14.457 3.6570001 -0.72000003 -0.078515276 0.51226884 -0.54724383 0.75369745
-14.594 3.642 -0.72799999 -0.074295014 0.51260787 -0.54386377 0.75104886
-14.718 3.6240001 -0.73500001 -0.073359728 0.51418751 -0.54021478 0.74940139
-14.838 3.6289999 -0.74199998 -0.069635212 0.51787692 -0.5427916 0.75343764
-14.991 3.6159999 -0.75099999 -0.066388771 0.52171326 -0.54392475 0.75660187
-15.136 3.5999999 -0.75999999 -0.054666854 0.52270538 -0.54638457 0.7581197
-15.276 3.5829999 -0.76800001 -0.043114491 0.52812493 -0.548159 0.76239955
-15.429 3.5669999 -0.77700001 -0.039952245 0.52854174 -0.5477466 0.76221973
-15.59 3.553 -0.78600001 -0.028180137 0.52339023 -0.54611158 0.75694734
-15.747 3.536 -0.796 -0.02836665 0.52309757 -0.54214865 0.75389713
-15.891 3.5420001 -0.80500001 -0.025872519 0.52608478 -0.54042864 0.75465065
-16.058001 3.526 -0.81400001 -0.014460197 0.52874488 -0.54202193 0.7573427
-16.250999 3.5150001 -0.82599998 -0.010111765 0.53435105 -0.53726554 0.75781763
-16.416 3.4960001 -0.83600003 0.001550273 0.53360397 -0.54800498 0.76488239
-16.599001 3.4809999 -0.84600002 -0.027876019 0.53625071 -0.54645199 0.76612771
-16.841 3.4760001 -0.861 -0.018599493 0.54228616 -0.54816931 0.77130395
-16.896999 3.4319999 -0.86400002 -0.033105209 0.54553521 -0.47042689 0.72111446
-17.466 3.5179999 -0.89899999 0.39647081 -0.25905377 -0.48686928 0.6792199
-17.469 3.461 -0.89899999 0.39647081 -0.25905377 -0.48686928 0.6792199
-17.450001 3.2869999 -0.89600003 0.40143985 -0.25458059 -0.47649738 0.67306387
-17.452 3.2309999 -0.89499998 0.50554031 0.024245594 -0.54339534 0.74258828
-13.937 5.5279999 -0.829 0.47697109 0.16971084 -0.43092325 0.66482931
-13.932 5.4749999 -0.82800001 0.47831047 0.16961178 -0.42891619 0.66446835
-13.929 5.4239998 -0.82599998 0.47402209 0.16933265 -0.41795963 0.6542635
-13.933 5.375 -0.82499999 0.47489938 0.14635082 -0.42734876 0.65541971
-13.923 5.3210001 -0.82300001 0.46958843 0.1242009 -0.41433156 0.63844323
-13.912 5.2659998 -0.82099998 0.45403165 0.098399162 -0.39872155 0.61221403
-13.912 5.2160001 -0.81999999 0.44982019 0.077107854 -0.39585924 0.60414267
-13.886 5.1820002 -0.81800002 0.44863924 0.073905595 -0.38991654 0.59897757
-13.886 5.132 -0.81599998 0.45506427 0.060018338 -0.41131151 0.61633015
-13.883 5.0819998 -0.815 0.45748925 0.044850096 -0.42309925 0.62475669
-13.88 5.0310001 -0.81400001 0.45375603 0.037231497 -0.42409095 0.62220085
-13.877 4.9809999 -0.81199998 0.46106455 0.052544247 -0.44248998 0.64120108
-13.876 4.9310002 -0.81099999 0.45973033 0.055430364 -0.45015454 0.64580458
-13.863 4.8769999 -0.80900002 0.46020555 0.064644344 -0.46539941 0.65769649
-13.854 4.8499999 -0.80800003 0.46108949 0.060505234 -0.47185361 0.662503
-13.852 4.8000002 -0.80699998 0.4505935 0.033181597 -0.47046801 0.65228498
-13.844 4.7490001 -0.80500001 0.45071456 0.027675826 -0.47536978 0.65565693
-13.831 4.6960001 -0.80299997 0.4512372 0.024239883 -0.48245892 0.66103643
-13.84 4.6500001 -0.80199999 0.45169461 0.017785475 -0.48385143 0.66216052
-13.841 4.6020002 -0.801 0.45210189 0.011645994 -0.48755223 0.66501045
-13.839 4.553 -0.80000001 0.45219475 0.010999816 -0.49146679 0.66793764
-13.832 4.527 -0.79900002 0.45252934 0.0026545571 -0.49547127 0.67103028
-13.829 4.4780002 -0.79799998 0.45248839 0.0042048618 -0.4971692 0.67226529
-13.821 4.427 -0.796 0.4514015 0.0013597128 -0.51241714 0.68288833
-13.831 4.3829999 -0.796 0.45203546 0.013066519 -0.51562774 0.68584162
-13.823 4.3319998 -0.79500002 0.45230013 0.016857918 -0.49642453 0.67178637
-13.818 4.283 -0.79299998 0.45307711 0.014038929 -0.49098584 0.66823876
-13.826 4.2379999 -0.79299998 0.45278254 0.011842656 -0.47759324 0.65821546
-13.819 4.2119999 -0.792 0.45274803 0.014669073 -0.47899926 0.65926951
-13.813 4.1630001 -0.79000002 0.45306337 0.010706713 -0.47993645 0.66009092
-13.822 4.118 -0.79000002 0.45392865 0.004272623 -0.49615687 0.67248875
-13.81 4.0669999 -0.78799999 0.45372862 -0.0090636024 -0.48777649 0.66624147
-13.81 4.02 -0.787 0.4525148 -0.036164749 -0.49432126 0.67114162
-13.818 3.9760001 -0.787 0.45131689 -0.06146713 -0.47404978 0.65741032
-13.817 3.928 -0.78600001 0.44469395 -0.087472528 -0.47765461 0.65845126
-13.81 3.9030001 -0.78500003 0.43991822 -0.1105758 -0.48474756 0.66387892
-13.816 3.858 -0.78500003 0.42094398 -0.16867849 -0.48380989 0.66311258
-13.809 3.809 -0.78299999 0.40936047 -0.1961897 -0.48068881 0.66115665
-13.811 3.763 -0.78299999 0.37714645 -0.25606075 -0.47989297 0.66189414
-13.817 3.7179999 -0.78200001 0.31711197 -0.33239946 -0.48160893 0.66557986
-13.887 3.6900001 -0.78600001 -0.30942357 0.43639797 -0.5045684 0.73537433
-13.997 3.6719999 -0.79299998 -0.22530563 0.4785881 -0.519844 0.74165154
-14.122 3.6819999 -0.80199999 -0.14262545 0.50443035 -0.53623247 0.74989146
-14.236 3.664 -0.80900002 -0.083455108 0.50987417 -0.53877556 0.74646872
-14.358 3.6470001 -0.81699997 -0.078872971 0.51223791 -0.54239124 0.75019789
-14.493 3.6340001 -0.82599998 -0.075510263 0.5118165 -0.54312998 0.75009871
-14.615 3.6159999 -0.83399999 -0.074975945 0.51264554 -0.54325736 0.75070328
-14.752 3.6010001 -0.84299999 -0.069872521 0.5160898 -0.54024667 0.7503981
-14.887 3.5840001 -0.85100001 -0.066333652 0.52233332 -0.53655326 0.75174576
-15.021 3.592 -0.86000001 -0.064195894 0.52298838 -0.53295755 0.74945426
-15.152 3.573 -0.86900002 -0.055427313 0.52402997 -0.53818601 0.75320899
-15.309 3.5599999 -0.87900001 -0.04305654 0.52990752 -0.53830498 0.75658977
-15.458 3.543 -0.889 -0.037558079 0.53011113 -0.53733033 0.75574619
-15.613 3.5280001 -0.89899999 -0.026306052 0.52399117 -0.54079241 0.75346875
-15.784 3.5139999 -0.91000003 -0.027133971 0.52545846 -0.53941977 0.75353599
-15.939 3.497 -0.921 -0.024903249 0.52649736 -0.53225052 0.74907291
-16.118 3.51 -0.93300003 -0.018834831 0.52959794 -0.52621996 0.74681741
-16.308001 3.4979999 -0.94499999 -0.01231926 0.53472185 -0.53380424 0.75566274
-16.518 3.4890001 -0.95899999 -0.028237011 0.53860092 -0.53070039 0.7566579
-16.672001 3.467 -0.96899998 -0.033515126 0.53586102 -0.52668732 0.75211024
-16.872 3.454 -0.98299998 -0.019273587 0.54381603 -0.51174408 0.74698681
-16.944 3.4130001 -0.98699999 -0.012930525 0.54775453 -0.51050365 0.74887663
-17.318001 3.4319999 -1.013 -0.10057459 0.52963954 -0.5994978 0.80624497
-17.558001 3.4519999 -1.029 -0.092551172 0.5498538 -0.46790764 0.72790283
-13.98 5.5289998 -0.90600002 0.47354352 0.17273343 -0.4053233 0.64681321
-13.967 5.4990001 -0.90499997 0.47278208 0.17745891 -0.4078846 0.64914125
-13.967 5.448 -0.903 0.47615317 0.16452003 -0.40822947 0.64841342
-13.962 5.3959999 -0.90100002 0.45960256 0.13804623 -0.40958533 0.63091314
-13.955 5.3429999 -0.89999998 0.45336837 0.11427221 -0.41198611 0.62316418
-13.958 5.2940001 -0.89899999 0.45515579 0.10604089 -0.4121975 0.62315184
-13.945 5.2389998 -0.89600003 0.45078108 0.087213106 -0.41004211 0.61558449
-13.931 5.184 -0.89399999 0.45201591 0.078571729 -0.41030884 0.61550409
-13.926 5.1570001 -0.89300001 0.45663181 0.061680101 -0.42197147 0.62480152
-13.915 5.1030002 -0.89099997 0.46212447 0.06020958 -0.43308038 0.63619405
-13.912 5.053 -0.889 0.46192074 0.035544515 -0.43306398 0.63417554
-13.912 5.0040002 -0.88800001 0.46339262 0.044939607 -0.43533993 0.63739556
-13.906 4.9520001 -0.88599998 0.46412298 0.053312074 -0.4377968 0.64024866
-13.897 4.9000001 -0.884 0.45030692 0.032544918 -0.44554439 0.63430697
-13.904 4.8530002 -0.884 0.44866058 0.032726943 -0.45053297 0.63666892
-13.893 4.8249998 -0.88200003 0.44974187 0.026844677 -0.45119175 0.63762248
-13.884 4.7729998 -0.88 0.45158783 0.023376077 -0.47312218 0.65446359
-13.885 4.7249999 -0.87900001 0.45186138 0.019713752 -0.4731957 0.654585
-13.876 4.6729999 -0.87699997 0.45171705 0.013930132 -0.47823572 0.65799069
-13.875 4.6240001 -0.87599999 0.45175296 0.015148125 -0.48096994 0.66003203
-13.878 4.5770001 -0.875 0.45152119 0.0057474161 -0.48274305 0.66101837
-13.864 4.5240002 -0.87300003 0.45182174 0.00087738875 -0.48964074 0.66625196
-13.86 4.4990001 -0.87199998 0.45185766 -0.00016251672 -0.49039587 0.66683096
-13.864 4.4520001 -0.87099999 0.45337772 0.011425056 -0.4807882 0.66093814
-13.857 4.402 -0.87 0.45345253 0.0091335401 -0.48055774 0.66078615
-13.861 4.355 -0.86900002 0.45180982 0.017794978 -0.47642305 0.65683156
-13.858 4.3060002 -0.86799997 0.45175096 0.021473277 -0.47896743 0.65874869
-13.854 4.2579999 -0.866 0.45235503 0.0097966837 -0.4848423 0.66316897
-13.858 4.211 -0.866 0.45291871 0.010439653 -0.47613546 0.65722853
-13.851 4.1849999 -0.86500001 0.45270371 0.013091917 -0.4729479 0.65482193
-13.847 4.1370001 -0.86299998 0.45307031 0.011754505 -0.47027785 0.65312493
-13.845 4.0890002 -0.86199999 0.45564947 0.0051795994 -0.47712308 0.65976489
-13.854 4.0440001 -0.86199999 0.45494902 -0.012007674 -0.46831697 0.65302646
-13.843 3.994 -0.86000001 0.45340163 -0.034318436 -0.46186569 0.64812863
-13.846 3.948 -0.85900003 0.44372025 -0.097602859 -0.45306197 0.64162225
-13.858 3.904 -0.85900003 0.43730465 -0.12699962 -0.46039894 0.64755803
-13.845 3.8770001 -0.85799998 0.42861581 -0.14638652 -0.4614839 0.64661264
-13.844 3.8299999 -0.85699999 0.42457208 -0.15570532 -0.46228847 0.64669639
-13.854 3.786 -0.85699999 0.37927577 -0.25457272 -0.4906573 0.67037451
-13.872 3.744 -0.85699999 0.33448628 -0.31373224 -0.47383198 0.65941316
-13.92 3.71 -0.86000001 -0.33689612 0.41682386 -0.52574939 0.7507686
-14.057 3.6989999 -0.87 -0.2222272 0.4803777 -0.52416265 0.74491215
-14.157 3.678 -0.87599999 -0.13730679 0.50139147 -0.53937757 0.74911594
-14.273 3.684 -0.88499999 -0.085497305 0.50996089 -0.5349142 0.7439779
-14.395 3.6670001 -0.89300001 -0.081575707 0.51261437 -0.53427017 0.74489778
-14.517 3.6489999 -0.90100002 -0.077714667 0.51209593 -0.53711748 0.74617493
-14.644 3.632 -0.91000003 -0.074203305 0.51326323 -0.53603256 0.74583924
-14.789 3.618 -0.92000002 -0.070875883 0.51635879 -0.53564429 0.74737185
-14.925 3.602 -0.93000001 -0.06786111 0.51961619 -0.51775444 0.73666531
-15.07 3.586 -0.94 -0.062210809 0.5238508 -0.51997203 0.7407164
-15.204 3.5929999 -0.94999999 -0.053303264 0.52529085 -0.53206545 0.74957675
-15.345 3.575 -0.95999998 -0.043419804 0.53023481 -0.53351259 0.75343871
-15.496 3.559 -0.97000003 -0.031016778 0.52434731 -0.53149408 0.74725366
-15.659 3.5439999 -0.98199999 -0.026111946 0.52458012 -0.53320146 0.74844503
-15.822 3.529 -0.99299997 -0.025966061 0.52617419 -0.53039116 0.74756157
-15.989 3.513 -1.005 -0.017314527 0.52736712 -0.5254429 0.74465168
-16.176001 3.5 -1.018 -0.011855748 0.53006309 -0.52327996 0.74493581
-16.355 3.5120001 -1.031 -0.016156204 0.53514999 -0.52325267 0.74862534
-16.561001 3.5020001 -1.046 -0.035092872 0.53816748 -0.52981287 0.75601417
-16.743999 3.4849999 -1.059 -0.02909166 0.53571659 -0.51704705 0.74510151
-16.927 3.467 -1.072 -0.015637323 0.54405028 -0.51209539 0.74731308
-17.145 3.4560001 -1.087 -0.011391549 0.54731566 -0.55768692 0.78147227
-17.375 3.4449999 -1.104 -0.1586004 0.51915699 -0.56322563 0.78224117
-17.593 3.4300001 -1.119 0.0056691621 0.55791765 -0.50750899 0.75423443
-13.99 5.5549998 -1.006 0.4706417 0.18338895 -0.40529048 0.64760751
-13.924 5.427 -0.99800003 0.47467014 0.15311931 -0.41500276 0.64883322
-13.907 5.395 -0.99599999 0.46878898 0.15112218 -0.41453305 0.64376909
-13.896 5.3410001 -0.99299997 0.45425031 0.11104353 -0.42054999 0.62891674
-13.899 5.2919998 -0.99199998 0.45951298 0.096782863 -0.43740961 0.64175248
-13.892 5.2389998 -0.99000001 0.45552781 0.078871362 -0.43830666 0.63705492
-13.891 5.1890001 -0.98900002 0.45778269 0.067055598 -0.44122261 0.63932687
-13.889 5.1389999 -0.98699999 0.45927116 0.058288839 -0.44353122 0.64112985
-13.881 5.086 -0.98500001 0.4630965 0.046430252 -0.4433611 0.6427933
-13.864 5.0549998 -0.98299998 0.46133554 0.034104463 -0.44219038 0.63994211
-13.863 5.006 -0.98100001 0.46379599 0.041802064 -0.4458003 0.64466429
-13.851 4.9520001 -0.97899997 0.46419048 0.050049331 -0.44496578 0.64495915
-13.855 4.9039998 -0.97799999 0.45101416 0.029520018 -0.44943878 0.63740128
-13.853 4.855 -0.977 0.4498055 0.025006019 -0.45025364 0.63692904
-13.842 4.802 -0.97399998 0.45073661 0.020651028 -0.45700258 0.64221597
-13.819 4.7459998 -0.97100002 0.45101228 0.017469708 -0.4577024 0.64281315
-13.831 4.7249999 -0.97100002 0.45120156 0.013622472 -0.45710504 0.64242774
-13.83 4.677 -0.97000003 0.45057574 0.016705442 -0.46066421 0.64459991
-13.836 4.6300001 -0.96899998 0.45077664 0.013533399 -0.46111429 0.6449877
-13.827 4.579 -0.96700001 0.45112184 0.007872642 -0.46245176 0.6460917
-13.825 4.5300002 -0.96600002 0.45174018 0.0042895144 -0.4656665 0.6487934
-13.814 4.4780002 -0.96399999 0.45168734 0.0072532995 -0.46645844 0.6493516
-13.826 4.434 -0.96399999 0.45309836 0.0096716769 -0.46353123 0.64826912
-13.81 4.4050002 -0.96200001 0.45373732 0.011046303 -0.46575001 0.650325
-13.803 4.355 -0.95999998 0.45255718 0.01490203 -0.46641654 0.65005726
-13.815 4.3109999 -0.95999998 0.45265341 0.014564342 -0.46778947 0.6511023
-13.813 4.263 -0.95899999 0.45271969 0.010913835 -0.46706402 0.65055597
-13.815 4.2160001 -0.958 0.45280299 0.016727878 -0.46881235 0.65199339
-13.8 4.164 -0.95499998 0.45235443 0.013176503 -0.46043169 0.64559698
-13.805 4.118 -0.95499998 0.45195577 0.020524755 -0.45769587 0.64356101
-13.808 4.0960002 -0.954 0.4519093 0.012019316 -0.45412859 0.64078021
-13.809 4.0489998 -0.95300001 0.45424718 0.0011298761 -0.45437297 0.64249247
-13.795 3.9979999 -0.95099998 0.45392486 -0.013848574 -0.45415545 0.64225912
-13.809 3.9549999 -0.95099998 0.44820189 -0.073165886 -0.45345631 0.64176387
-13.812 3.9089999 -0.94999999 0.44768509 -0.083930239 -0.46192628 0.64872342
-13.863 3.8759999 -0.954 0.42224735 -0.17714661 -0.44918141 0.64143407
-13.8 3.812 -0.94700003 0.41219816 -0.18366639 -0.44577175 0.63431311
-13.783 3.7839999 -0.94599998 0.41097862 -0.1804657 -0.42702559 0.61953384
-13.804 3.743 -0.94599998 0.37138289 -0.26036924 -0.43878618 0.63107109
-13.845 3.707 -0.949 0.34457195 -0.3002277 -0.45875162 0.64754885
-13.962 3.6919999 -0.958 -0.30284682 0.43746582 -0.53516299 0.7546469
-14.074 3.675 -0.96600002 -0.19621593 0.48586196 -0.52905518 0.74462199
-14.19 3.6570001 -0.97399998 -0.11320446 0.50586075 -0.5400089 0.74854523
-14.319 3.6429999 -0.98400003 -0.079112276 0.51225096 -0.53629112 0.74583369
-14.444 3.651 -0.99400002 -0.076886669 0.51232547 -0.53516716 0.74484414
-14.568 3.6340001 -1.003 -0.075954743 0.51261133 -0.5334627 0.74372172
-14.701 3.618 -1.0140001 -0.061701305 0.51690406 -0.51452923 0.73194075
-14.838 3.6029999 -1.024 -0.060932696 0.5184629 -0.50719541 0.72784871
-14.972 3.586 -1.034 -0.064219393 0.52039039 -0.50721377 0.7295177
-15.128 3.573 -1.046 -0.07154277 0.52461767 -0.49910501 0.72763169
-15.27 3.556 -1.057 -0.05248373 0.52759689 -0.51599288 0.73983902
-15.42 3.54 -1.068 -0.033744674 0.5261988 -0.5196411 0.74030453
-15.57 3.549 -1.08 -0.026876528 0.52527952 -0.51939225 0.73919499
-15.721 3.5320001 -1.092 -0.022104375 0.52529633 -0.51996785 0.73945343
-15.886 3.517 -1.104 -0.02996292 0.52629751 -0.51452982 0.7366327
-16.048 3.5 -1.117 -0.020998526 0.52763873 -0.51372349 0.73671937
-16.225 3.4860001 -1.13 -0.010005981 0.53253025 -0.51341575 0.73978668
-16.413 3.473 -1.145 -0.016774297 0.53451163 -0.52034271 0.74615049
-16.596001 3.457 -1.159 -0.028491473 0.53895128 -0.51314253 0.7447117
-16.768999 3.4660001 -1.173 -0.015186471 0.53720438 -0.50167531 0.73518521
-16.962999 3.451 -1.188 -0.017972693 0.54378957 -0.50202227 0.74030834
-17.162001 3.4349999 -1.2029999 -0.027240478 0.55070645 -0.50600255 0.74837035
-17.360001 3.4189999 -1.2180001 -0.0028462317 0.54849368 -0.44901124 0.70884734
-17.49 3.3870001 -1.228 -0.028215695 0.54891205 -0.44481391 0.70707846
-17.855 3.401 -1.257 0.026323274 0.55225956 -0.54043931 0.77314824
-13.975 5.5599999 -1.092 0.48060691 0.15736321 -0.42476109 0.66043031
-13.968 5.507 -1.09 0.46948665 0.14215866 -0.42516112 0.64914465
-13.909 5.4330001 -1.0829999 0.46521276 0.12815261 -0.43505919 0.64970958
-13.902 5.3800001 -1.08 0.46089059 0.1023939 -0.43771735 0.6438176
-13.881 5.3470001 -1.0779999 0.4618361 0.091537625 -0.44970149 0.65107846
-13.875 5.2950001 -1.076 0.46261251 0.090022422 -0.45516664 0.65520304
-13.877 5.2459998 -1.074 0.45868424 0.07098642 -0.45590442 0.65059906
-13.869 5.1929998 -1.072 0.45883194 0.06855987 -0.45338935 0.64868259
-13.863 5.1409998 -1.0700001 0.45963153 0.058384009 -0.45632038 0.65030617
-13.86 5.0910001 -1.068 0.46371084 0.048208822 -0.45839092 0.65381503
-13.852 5.0380001 -1.066 0.46479568 0.043359071 -0.45821971 0.65412563
-13.844 5.0110002 -1.0650001 0.46568778 0.043083977 -0.45639119 0.6534633
-13.836 4.9590001 -1.062 0.46578392 0.044929896 -0.45569596 0.65317088
-13.832 4.9089999 -1.061 0.45194978 0.025503544 -0.45546952 0.6421538
-13.827 4.8579998 -1.059 0.45012376 0.022300616 -0.45138413 0.63785291
-13.835 4.8119998 -1.058 0.45071092 0.019078642 -0.4553653 0.64098507
-13.812 4.756 -1.0549999 0.45104754 0.016407065 -0.45728871 0.64251542
-13.821 4.71 -1.054 0.45135352 0.012249464 -0.45802948 0.64316487
-13.81 4.6820002 -1.053 0.4503575 0.015018719 -0.45670348 0.64158046
-13.809 4.6339998 -1.051 0.45073348 0.010370978 -0.45860624 0.64310801
-13.816 4.5879998 -1.05 0.45090944 0.0086150439 -0.45994353 0.64415962
-13.829 4.5440001 -1.05 0.45127639 0.006121424 -0.4599162 0.64436847
-13.852 4.5040002 -1.051 0.45258665 0.014343059 -0.45906079 0.64480788
-13.849 4.4549999 -1.05 0.45289648 0.0080129802 -0.45999143 0.64557844
-13.846 4.4060001 -1.048 0.45246553 0.012679575 -0.45681855 0.64309335
-13.834 4.3779998 -1.046 0.45307964 0.0086156391 -0.45586592 0.64278233
-13.836 4.3309999 -1.045 0.45223737 0.011981633 -0.4604449 0.64550114
-13.833 4.2820001 -1.044 0.45244119 0.015976928 -0.46520931 0.64913636
-13.835 4.2350001 -1.043 0.4524883 0.014343723 -0.4627299 0.64735645
-13.827 4.1849999 -1.041 0.45278323 0.021848911 -0.46410209 0.64875329
-13.836 4.1409998 -1.041 0.45425066 0.026340058 -0.46152911 0.64810997
-13.828 4.0910001 -1.039 0.45431408 0.020732122 -0.45944643 0.64646894
-13.814 4.0630002 -1.0369999 0.45446691 0.0022318184 -0.4569 0.64443988
-13.819 4.0180001 -1.036 0.45407504 -0.01683047 -0.45726267 0.64463675
-13.82 3.971 -1.035 0.44896191 -0.055806875 -0.43798557 0.62969244
-13.801 3.9189999 -1.0319999 0.44578141 -0.069407076 -0.42398727 0.61911517
-13.787 3.868 -1.03 0.44035727 -0.093337148 -0.41610444 0.61300021
-13.822 3.8310001 -1.0319999 0.41984868 -0.16404954 -0.41793704 0.61470038
-13.805 3.78 -1.029 0.40566128 -0.19294037 -0.41814101 0.61370105
-13.819 3.737 -1.03 0.36859536 -0.25483766 -0.40414473 0.60343826
-13.807 3.71 -1.028 0.33756977 -0.29724824 -0.4043225 0.60480291
-13.907 3.6900001 -1.036 -0.34313041 0.40698579 -0.5679428 0.77841824
-14.031 3.6760001 -1.046 -0.22727633 0.47134057 -0.54108202 0.75271922
-14.15 3.6589999 -1.0549999 -0.12051733 0.50434351 -0.54306656 0.75087154
-14.278 3.6440001 -1.066 -0.078084648 0.51239592 -0.53367156 0.74394363
-14.386 3.6240001 -1.074 -0.077099741 0.51175475 -0.53793156 0.74646342
-14.521 3.609 -1.085 -0.072192706 0.51371664 -0.5182175 0.73325706
-14.639 3.6140001 -1.095 -0.059040986 0.5167253 -0.49543431 0.71829385
-14.764 3.595 -1.105 -0.056815218 0.51821595 -0.49402574 0.71821803
-14.89 3.576 -1.115 -0.051989958 0.5177092 -0.45928743 0.69402498
-15.043 3.563 -1.128 -0.071755938 0.51906627 -0.45972419 0.69708323
-15.192 3.5469999 -1.14 -0.072317861 0.52463162 -0.4809427 0.71538389
-15.327 3.5280001 -1.151 -0.055427875 0.52723926 -0.50121874 0.72957093
-15.482 3.5120001 -1.164 -0.028913639 0.52503568 -0.51549131 0.73636252
-15.635 3.5209999 -1.177 -0.024694679 0.52587152 -0.50616664 0.73031175
-15.8 3.506 -1.1900001 -0.029746076 0.52663803 -0.50132865 0.72771072
-15.98 3.493 -1.205 -0.025485257 0.52724427 -0.49026272 0.72041208
-16.150999 3.477 -1.219 -0.014049601 0.53026873 -0.49161938 0.72323716
-16.337 3.4630001 -1.235 -0.022474814 0.53498995 -0.49870262 0.73172647
-16.532 3.4489999 -1.251 -0.017984735 0.53639615 -0.49997273 0.73349643
-16.716 3.4330001 -1.266 -0.019768236 0.53885764 -0.49146146 0.72958392
-16.903 3.4430001 -1.2819999 -0.011344459 0.54413086 -0.48865125 0.73142815
-17.141001 3.4349999 -1.302 -0.029804669 0.54971814 -0.49109223 0.73773301
-17.302 3.411 -1.3150001 -0.0095865205 0.55063868 -0.49297357 0.73913318
-17.733 3.437 -1.352 0.0086104413 0.55348665 -0.52914029 0.76577479
-18.024 3.4349999 -1.376 0.024449617 0.54923093 -0.56917334 0.79133475
-13.959 5.5760002 -1.181 0.47178578 0.14034759 -0.43929696 0.65974319
-13.96 5.5250001 -1.179 0.47291666 0.13815619 -0.44526017 0.66407371
-13.871 5.4400001 -1.169 0.46913946 0.11426654 -0.44695801 0.65796667
-13.877 5.3920002 -1.1670001 0.46491221 0.088965327 -0.45302862 0.65520465
-13.876 5.3410001 -1.166 0.4637602 0.084451094 -0.45801568 0.65725482
-13.859 5.2839999 -1.1619999 0.46356001 0.084542111 -0.45867535 0.65758526
-13.852 5.257 -1.161 0.45875165 0.071405232 -0.45745775 0.65178168
-13.852 5.2069998 -1.159 0.45919323 0.065164663 -0.4624095 0.65492547
-13.838 5.152 -1.156 0.46058521 0.055640548 -0.46409824 0.65621775
-13.84 5.1030002 -1.155 0.46463323 0.043763679 -0.46392295 0.65804547
-13.826 5.0489998 -1.152 0.46547738 0.0415303 -0.46447235 0.65888429
-13.832 5.0019999 -1.151 0.46639821 0.04405643 -0.46728247 0.66168058
-13.836 4.954 -1.15 0.45443478 0.027180301 -0.46394366 0.64999497
-13.812 4.921 -1.147 0.45444074 0.024352748 -0.4637183 0.64972621
-13.847 4.8850002 -1.149 0.45476678 0.020710919 -0.46372241 0.64983094
-13.836 4.8319998 -1.146 0.45092729 0.024059325 -0.46291646 0.6466884
-13.832 4.7820001 -1.1440001 0.45106113 0.018240914 -0.45896947 0.64377159
-13.832 4.7329998 -1.143 0.4515149 0.013418427 -0.46099654 0.64541733
-13.786 4.6690001 -1.137 0.45079297 0.013705532 -0.46145597 0.64524704
-13.793 4.6230001 -1.136 0.45128345 0.0085610738 -0.4612546 0.64535713
-13.793 4.599 -1.135 0.45119923 0.0094363773 -0.46060193 0.64484411
-13.843 4.5679998 -1.1390001 0.45120025 0.0071534058 -0.45941153 0.64396566
-13.844 4.52 -1.138 0.45284089 0.013463009 -0.46194381 0.64702255
-13.822 4.4640002 -1.1339999 0.45347303 0.0096581364 -0.4614318 0.64703196
-13.831 4.4190001 -1.1339999 0.45324221 0.01281916 -0.45966122 0.64566344
-13.833 4.3720002 -1.132 0.45333773 0.0060060276 -0.45814112 0.64454979
-13.79 4.3109999 -1.127 0.45208094 0.0095057739 -0.45760122 0.64332449
-13.832 4.276 -1.13 0.4520798 0.015172443 -0.45766357 0.64347672
-13.819 4.2490001 -1.128 0.45199776 0.01757825 -0.45765871 0.64347684
-13.812 4.1989999 -1.126 0.45193702 0.023992801 -0.45438734 0.64131939
-13.773 4.1399999 -1.1210001 0.4517836 0.026714504 -0.45412385 0.64113224
-13.777 4.0939999 -1.12 0.45402551 0.023184573 -0.45293272 0.64173573
-13.793 4.0510001 -1.12 0.45430604 0.010190534 -0.45232785 0.64116949
-13.787 4.0029998 -1.119 0.45358673 -0.013873777 -0.44320011 0.63431835
-13.953 4.0029998 -1.133 0.45266345 -0.076975785 -0.4521105 0.64438605
-13.79 3.9330001 -1.117 0.45238861 -0.031660337 -0.44086063 0.6324681
-13.785 3.885 -1.115 0.44317079 -0.094872139 -0.43731081 0.62979507
-13.671 3.806 -1.103 0.4450205 -0.059433986 -0.42406103 0.61757869
-13.844 3.8080001 -1.119 0.4221966 -0.16724993 -0.42073709 0.61906558
-13.843 3.7609999 -1.117 0.37239361 -0.25341356 -0.41778731 0.61436284
-13.808 3.7049999 -1.113 0.37986869 -0.24053498 -0.41498873 0.61186022
-13.883 3.678 -1.119 -0.31901133 0.4237822 -0.57103467 0.77938449
-13.974 3.6789999 -1.127 -0.26014555 0.46036163 -0.544384 0.75892192
-14.095 3.664 -1.138 -0.15868823 0.49463618 -0.54712927 0.75445169
-14.226 3.6500001 -1.149 -0.081831977 0.51103795 -0.52341503 0.73608392
-14.344 3.6329999 -1.159 -0.072964653 0.51403791 -0.51224393 0.72935081
-14.467 3.6159999 -1.17 -0.066743001 0.51409566 -0.50997901 0.72720528
-14.612 3.6029999 -1.182 -0.058757499 0.51670331 -0.49170622 0.71568835
-14.718 3.5810001 -1.191 -0.046125211 0.51630718 -0.46692967 0.69765604
-14.868 3.5929999 -1.205 -0.051174104 0.51721537 -0.4530023 0.6894502
-15.023 3.5810001 -1.2180001 -0.079063751 0.51620781 -0.44760284 0.68780077
-15.16 3.563 -1.23 -0.099429846 0.51870155 -0.45097348 0.69448876
-15.315 3.549 -1.244 -0.06747169 0.5204156 -0.47157955 0.70552963
-15.463 3.533 -1.257 -0.031484995 0.52503878 -0.49080357 0.71940613
-15.618 3.517 -1.27 -0.02299008 0.5258022 -0.48431948 0.71523547
-15.787 3.503 -1.285 -0.029222833 0.52628726 -0.47952688 0.71258563
-15.963 3.516 -1.301 -0.021466773 0.5269562 -0.47401589 0.70910841
-16.149 3.5039999 -1.318 -0.020909457 0.52644134 -0.46861655 0.7051093
-16.306 3.4849999 -1.332 -0.020724855 0.53406984 -0.46631432 0.70930189
-16.5 3.4719999 -1.349 -0.015193067 0.535662 -0.46871418 0.71193933
-16.688 3.4579999 -1.365 -0.012568506 0.53203791 -0.46665925 0.70780867
-16.902 3.447 -1.3839999 -0.017894017 0.54109639 -0.4697752 0.71679443
-17.128 3.437 -1.405 -0.011946026 0.54642266 -0.47960299 0.72714472
-17.131001 3.4100001 -1.404 -0.012005664 0.5457232 -0.47967163 0.72666556
-17.811001 3.4300001 -1.466 -0.017564608 0.55155218 -0.55268657 0.78101265
-18.021 3.4119999 -1.485 0.024709949 0.54804194 -0.56930184 0.79061061
-13.929 5.5580001 -1.273 0.46950039 0.14075996 -0.44132796 0.65955621
-13.879 5.4879999 -1.266 0.47337878 0.12252013 -0.44541386 0.66143191
-13.902 5.447 -1.266 0.46519044 0.092668548 -0.44724742 0.65193546
-13.888 5.4159999 -1.2640001 0.46418187 0.088326901 -0.4470394 0.6504696
-13.887 5.3649998 -1.262 0.46635339 0.072559915 -0.45002171 0.65212727
-13.878 5.3119998 -1.2589999 0.46380663 0.078517281 -0.4513976 0.65195197
-13.866 5.2579999 -1.256 0.45953667 0.059303395 -0.45308653 0.64805728
-13.873 5.211 -1.255 0.4595128 0.058775328 -0.45553738 0.64970827
-13.86 5.1560001 -1.252 0.46371901 0.055614926 -0.46003684 0.65556252
-13.865 5.1079998 -1.251 0.46479601 0.041865468 -0.46338087 0.65765482
-13.86 5.0570002 -1.249 0.45355743 0.023289723 -0.46486747 0.64989114
-13.844 5.027 -1.2460001 0.45570102 0.02949463 -0.46577805 0.65229023
-13.833 4.974 -1.244 0.45573995 0.026398426 -0.46143356 0.64908916
-13.837 4.9260001 -1.242 0.45389473 0.028336789 -0.46147478 0.64790612
-13.83 4.875 -1.24 0.45459777 0.022404242 -0.46341845 0.64955193
-13.831 4.8260002 -1.239 0.45244926 0.019086771 -0.45816404 0.64419633
-13.831 4.7779999 -1.237 0.45003453 0.021386772 -0.44972453 0.63658512
-13.821 4.7259998 -1.234 0.45043853 0.014499051 -0.44915426 0.63627404
-13.81 4.698 -1.232 0.45032996 0.013538167 -0.44749165 0.63500327
-13.809 4.6490002 -1.2309999 0.45066091 0.0080884341 -0.44794908 0.63546759
-13.814 4.6030002 -1.23 0.45006207 0.008460735 -0.44720978 0.63452661
-13.827 4.559 -1.23 0.4500623 0.0066286298 -0.44652316 0.63402128
-13.826 4.5100002 -1.228 0.45248052 0.013028563 -0.45100319 0.63899314
-13.815 4.4590001 -1.226 0.45282656 0.014107341 -0.45518029 0.64221489
-13.806 4.408 -1.223 0.45271972 0.013867242 -0.45384383 0.64118773
-13.8 4.382 -1.222 0.45270139 0.015814457 -0.45457301 0.64173615
-13.818 4.3400002 -1.222 0.45270768 0.0066561196 -0.45108861 0.63911617
-13.801 4.2870002 -1.219 0.45154285 0.012338584 -0.45062426 0.63804811
-13.795 4.2379999 -1.217 0.45152649 0.019225996 -0.45288494 0.63980508
-13.797 4.191 -1.216 0.45186853 0.024815675 -0.45403832 0.64105523
-13.793 4.1430001 -1.214 0.45389915 0.027149074 -0.45410776 0.64263159
-13.796 4.0970001 -1.2130001 0.45415083 0.023877185 -0.45464888 0.643062
-13.787 4.0710001 -1.212 0.45393944 0.024646208 -0.45263606 0.64151996
-13.758 4.0149999 -1.207 0.45422998 0.008151141 -0.44667122 0.63710791
-13.822 3.987 -1.2130001 0.45362279 -0.0050254194 -0.44150332 0.63302767
-13.806 3.9349999 -1.21 0.44946402 -0.0622622 -0.44249731 0.63379675
-13.789 3.8840001 -1.207 0.44245949 -0.095465645 -0.43110806 0.6250906
-13.75 3.826 -1.202 0.43773237 -0.1084766 -0.42656448 0.62075281
-13.766 3.7839999 -1.202 0.43062419 -0.14544322 -0.4383015 0.63142627
-13.812 3.773 -1.206 0.39444208 -0.22206658 -0.42273399 0.61935622
-13.804 3.724 -1.204 0.35391212 -0.28363478 -0.4236263 0.62061399
-13.835 3.6860001 -1.206 0.28563434 -0.35324016 -0.4099268 0.61188692
-13.943 3.668 -1.216 -0.2603336 0.45966581 -0.54988104 0.76251912
-14.061 3.651 -1.227 -0.17930599 0.48988172 -0.53455234 0.74691427
-14.186 3.6359999 -1.238 -0.096447028 0.50952518 -0.52052969 0.73475784
-14.33 3.625 -1.252 -0.069435388 0.51434672 -0.49663001 0.71834201
-14.469 3.6359999 -1.265 -0.059148714 0.51130223 -0.48769128 0.70906371
-14.945 3.704 -1.312 -0.05246868 0.51152724 -0.44040769 0.67703176
-15.014 3.671 -1.318 -0.073476419 0.50858688 -0.43266314 0.67175651
-14.938 3.6029999 -1.309 -0.060313255 0.5113427 -0.44420972 0.68002307
-14.988 3.566 -1.313 -0.068537354 0.51663947 -0.4375006 0.6804561
-15.135 3.55 -1.327 -0.10882137 0.51042259 -0.42815131 0.67504585
-15.29 3.536 -1.341 -0.092638865 0.51330966 -0.43676519 0.680318
-15.472 3.552 -1.359 -0.038961831 0.52179712 -0.44760787 0.68858045
-15.621 3.5339999 -1.373 -0.02435551 0.52359408 -0.45088413 0.6914047
-15.797 3.5220001 -1.39 -0.029966628 0.5243631 -0.45173854 0.69276428
-15.989 3.5109999 -1.408 -0.01946006 0.52244329 -0.42679927 0.67489505
-16.174999 3.4990001 -1.425 -0.024700522 0.52130693 -0.42479134 0.67291802
-16.371 3.487 -1.444 -0.023699224 0.52358502 -0.42652038 0.67573851
-16.552 3.471 -1.461 -0.018664669 0.52578831 -0.42942169 0.67912054
-16.73 3.4809999 -1.478 -0.021633446 0.52892971 -0.43819687 0.68720531
-16.952 3.471 -1.499 -0.030533126 0.52899885 -0.45109034 0.69588399
-17.111 3.447 -1.5140001 -0.0082945153 0.53659624 -0.44085318 0.69451845
-17.134001 3.3959999 -1.515 -0.010709746 0.54254228 -0.43783984 0.69725931
-17.607 3.431 -1.562 -0.048086874 0.54699433 -0.48122537 0.73013222
-17.681 3.388 -1.568 -0.026016738 0.55250835 -0.49235952 0.7405135
-17.783001 3.3499999 -1.577 -0.0022740115 0.55339789 -0.51257044 0.75430954
-13.843 5.4910002 -1.354 0.47719747 0.1055796 -0.45221591 0.66585559
-13.877 5.454 -1.3559999 0.46701249 0.083745323 -0.45319766 0.65612656
-13.894 5.4109998 -1.3559999 0.46576634 0.082594454 -0.45472378 0.65615076
-13.892 5.3600001 -1.354 0.46820325 0.063680463 -0.45741299 0.65764439
-13.883 5.3060002 -1.351 0.46085575 0.05581392 -0.45633122 0.65095425
-13.867 5.2750001 -1.348 0.45960918 0.059170268 -0.45368388 0.64851427
-13.865 5.224 -1.346 0.46013981 0.05376333 -0.4555397 0.6497196
-13.861 5.1729999 -1.344 0.46390712 0.051997241 -0.45731306 0.65348971
-13.857 5.1220002 -1.342 0.45024896 0.026216758 -0.45351863 0.63960189
-13.856 5.072 -1.34 0.45212647 0.028989965 -0.45452982 0.64176017
-13.853 5.0219998 -1.3380001 0.45454919 0.030127933 -0.45199198 0.64173156
-13.842 4.9689999 -1.335 0.45439661 0.029494559 -0.44962689 0.63993013
-13.833 4.941 -1.3329999 0.45282742 0.036420286 -0.44452953 0.63559866
-13.823 4.888 -1.33 0.45236099 0.03048797 -0.44661003 0.6364122
-13.825 4.8400002 -1.329 0.4514659 0.029397853 -0.43763924 0.62945515
-13.823 4.7909999 -1.327 0.44842556 0.02360614 -0.43661591 0.62631959
-13.819 4.7410002 -1.325 0.44788218 0.021658674 -0.43124139 0.6221227
-13.817 4.6919999 -1.323 0.44639441 0.018354587 -0.41947344 0.61283183
-13.817 4.6430001 -1.321 0.44741619 0.0060506053 -0.42054662 0.61406618
-13.809 4.6160002 -1.319 0.44601798 0.010044311 -0.41713935 0.6107685
-13.803 4.566 -1.317 0.44650328 0.004811761 -0.41585937 0.61018634
-13.802 4.5180001 -1.316 0.45024955 0.01142903 -0.4310711 0.62344009
-13.797 4.4679999 -1.313 0.45001048 0.011697954 -0.42926413 0.62202406
-13.794 4.4190001 -1.312 0.45019439 0.0072004078 -0.42956105 0.62229377
-13.794 4.3720002 -1.3099999 0.45058346 0.016297456 -0.43499118 0.6265049
-13.795 4.3239999 -1.309 0.45027515 0.0048962776 -0.42973003 0.62244642
-13.784 4.2969999 -1.307 0.44904101 0.014371802 -0.42961282 0.62162012
-13.79 4.2509999 -1.306 0.44970053 0.010512677 -0.43379402 0.62491465
-13.785 4.2020001 -1.304 0.449898 0.021058939 -0.43432987 0.62569493
-13.786 4.1550002 -1.303 0.45204741 0.028246924 -0.43708077 0.62943178
-13.79 4.1090002 -1.302 0.45161691 0.034611288 -0.43598145 0.62867767
-13.787 4.0609999 -1.3 0.45171195 0.029025737 -0.43099785 0.62501627
-13.781 4.0120001 -1.298 0.45219392 0.0043183826 -0.4296335 0.62376511
-13.774 3.987 -1.296 0.4527134 0.0029657297 -0.43349329 0.62679714
-13.769 3.9389999 -1.295 0.45049658 -0.039326794 -0.43062583 0.62444562
-13.776 3.8940001 -1.294 0.44649759 -0.080462694 -0.44075614 0.63253486
-13.786 3.8499999 -1.294 0.44258755 -0.10387816 -0.42826936 0.62457108
-13.566 3.7420001 -1.2690001 0.4431054 -0.080771357 -0.43159568 0.6238119
-13.58 3.7 -1.2690001 0.44465357 -0.081192628 -0.4406307 0.63124043
-13.745 3.6989999 -1.285 0.38272983 -0.24328758 -0.4330174 0.62703669
-13.825 3.697 -1.294 0.32254291 -0.32764116 -0.46184346 0.6516763
-13.918 3.675 -1.302 -0.28383785 0.44940987 -0.52584386 0.74769306
-14.031 3.6589999 -1.313 -0.19520149 0.48473087 -0.53420907 0.74729311
-14.147 3.641 -1.324 -0.086252928 0.51044977 -0.49230728 0.71439832
-14.264 3.6240001 -1.336 -0.065228939 0.5143308 -0.48087496 0.70712918
-14.979 3.757 -1.4119999 -0.044271387 0.5074482 -0.43364823 0.66896516
-15.103 3.7379999 -1.424 -0.082751028 0.50267702 -0.42330301 0.66235745
-15.082 3.707 -1.421 -0.083525956 0.50233883 -0.42186812 0.66128176
-15.113 3.665 -1.423 -0.084429331 0.50257349 -0.4242084 0.66306949
-15.014 3.5910001 -1.411 -0.061918955 0.51166272 -0.43450794 0.67411411
-15.162 3.576 -1.426 -0.10216629 0.50224626 -0.42054278 0.66298223
-15.303 3.559 -1.4400001 -0.093671933 0.50894886 -0.41004491 0.6602577
-15.464 3.5450001 -1.456 -0.048595201 0.51842964 -0.42252278 0.67056417
-15.632 3.5320001 -1.472 -0.025665278 0.52214879 -0.43850648 0.68233865
-15.797 3.5439999 -1.49 -0.022210145 0.52091545 -0.42103171 0.67015964
-15.969 3.53 -1.507 -0.020848136 0.52006704 -0.41750488 0.66724408
-16.153 3.5179999 -1.525 -0.022203187 0.51362211 -0.40390509 0.65378892
-16.344 3.506 -1.545 -0.027632464 0.5179894 -0.39689428 0.65314752
-16.528999 3.4920001 -1.563 -0.023994729 0.52135736 -0.40493757 0.66057831
-16.719999 3.4779999 -1.582 -0.026937138 0.52507246 -0.41429985 0.66938108
-16.973 3.4749999 -1.608 -0.028886711 0.52648187 -0.42859095 0.67949086
-17.072001 3.467 -1.618 -0.0020934325 0.52432364 -0.38474813 0.65034664
-17.354 3.4679999 -1.647 -0.073429011 0.51747751 -0.37319127 0.64222002
-17.503 3.441 -1.6619999 -0.086455815 0.53430599 -0.43888733 0.6968354
-17.629 3.4089999 -1.674 -0.1099656 0.53626406 -0.51753533 0.75333548
-17.610001 3.348 -1.671 -0.10810827 0.54016739 -0.51710433 0.75555617
-13.887 5.573 -1.46 0.48306978 0.095210679 -0.43614584 0.65775728
-13.857 5.5100002 -1.454 0.47315374 0.071975827 -0.43710265 0.64816177
-13.913 5.4320002 -1.457 0.46636006 0.069248937 -0.44396758 0.64760661
-13.91 5.3800001 -1.454 0.46847132 0.055902272 -0.45062304 0.65241981
-13.895 5.3249998 -1.451 0.46258792 0.048987806 -0.45312899 0.64939451
-13.895 5.2750001 -1.449 0.46329972 0.055310398 -0.45116997 0.64904559
-13.861 5.237 -1.444 0.46334508 0.054328788 -0.45388368 0.65088451
-13.877 5.1929998 -1.444 0.45032904 0.034358259 -0.45215878 0.63908082
-13.867 5.1399999 -1.4400001 0.45170292 0.032366797 -0.44616264 0.63572341
-13.87 5.0910001 -1.439 0.44916138 0.030821759 -0.44188726 0.6308409
-13.847 5.0339999 -1.434 0.45283976 0.037338272 -0.44371358 0.63509035
-13.859 4.9889998 -1.434 0.45189068 0.036667518 -0.43497729 0.62829524
-13.848 4.9359999 -1.431 0.44947979 0.044605628 -0.42663541 0.62132078
-13.841 4.9089999 -1.429 0.44989833 0.04096061 -0.42606351 0.6209802
-13.83 4.8559999 -1.426 0.44645721 0.042869393 -0.41425657 0.61054921
-13.823 4.8049998 -1.423 0.44734174 0.034528941 -0.41338876 0.61007965
-13.83 4.7589998 -1.4220001 0.4437761 0.033979818 -0.41166392 0.6062665
-13.813 4.7049999 -1.419 0.44512102 0.024891473 -0.41467947 0.60886073
-13.816 4.6570001 -1.4170001 0.44525349 0.01417809 -0.41012138 0.60551733
-13.806 4.6059999 -1.414 0.44495583 0.010647054 -0.40829834 0.60399222
-13.808 4.5819998 -1.414 0.44483039 0.0078974823 -0.40696868 0.60295933
-13.807 4.5339999 -1.4119999 0.44616818 0.0087494059 -0.40517879 0.60275406
-13.799 4.4829998 -1.409 0.44718501 0.0033566877 -0.4099887 0.60669303
-13.807 4.4380002 -1.409 0.4474259 -0.0029167805 -0.41087842 0.6074698
-13.785 4.3829999 -1.405 0.44768101 0.0018260218 -0.41265041 0.60885298
-13.795 4.3390002 -1.404 0.4485482 0.015815254 -0.42049986 0.61503309
-13.791 4.29 -1.402 0.44953519 0.018745055 -0.42644542 0.61991048
-13.802 4.27 -1.403 0.44849357 0.017975762 -0.42659351 0.61923474
-13.783 4.2160001 -1.399 0.4478538 0.016171759 -0.41897219 0.61349183
-13.792 4.1719999 -1.398 0.44940847 0.03047297 -0.41922861 0.61534476
-13.778 4.1209998 -1.395 0.44951069 0.034365002 -0.42092657 0.61678195
-13.791 4.0770001 -1.395 0.44892916 0.027465051 -0.41250962 0.61029166
-13.787 4.0289998 -1.393 0.45242649 0.0072828792 -0.43144917 0.62521291
-13.794 3.984 -1.393 0.45296213 -0.025601458 -0.44247305 0.63372904
-13.777 3.9560001 -1.39 0.45095465 -0.047038097 -0.43992391 0.63174814
-13.78 3.9100001 -1.3890001 0.45014718 -0.070750616 -0.43997556 0.63341665
-13.781 3.8629999 -1.388 0.44434863 -0.10906789 -0.45329437 0.64406312
-13.754 3.809 -1.383 0.43564513 -0.14462544 -0.45670462 0.64752012
-13.743 3.76 -1.38 0.42347983 -0.17290105 -0.46601537 0.65299332
-13.759 3.7179999 -1.381 0.33948046 -0.3105005 -0.48937729 0.67167526
-13.79 3.6800001 -1.383 0.31533054 -0.33832559 -0.4952769 0.67764056
-13.872 3.678 -1.392 -0.3070595 0.43634495 -0.48968944 0.72420865
-13.991 3.6630001 -1.404 -0.23692368 0.46960807 -0.50018871 0.72584665
-14.143 3.655 -1.42 -0.071420379 0.5080477 -0.47826049 0.70138896
-14.249 3.6340001 -1.431 -0.061456867 0.51086521 -0.4725267 0.69859982
-14.535 3.658 -1.462 -0.070286237 0.508147 -0.44723549 0.68056822
-14.606 3.6270001 -1.469 -0.025118452 0.51294988 -0.46092448 0.69007236
-14.754 3.6140001 -1.485 -0.0067940261 0.51250416 -0.45940307 0.68830067
-15.113 3.677 -1.525 -0.089977272 0.50344777 -0.43635175 0.67227852
-15.094 3.622 -1.522 -0.077788159 0.50832736 -0.45514852 0.68673712
-15.194 3.595 -1.5319999 -0.1112588 0.49981225 -0.41707045 0.66040784
-15.355 3.582 -1.549 -0.077504173 0.49928543 -0.39504325 0.64136732
-15.519 3.569 -1.566 -0.039618179 0.51144648 -0.39866841 0.6496796
-15.699 3.5580001 -1.586 -0.017937258 0.51452225 -0.39140093 0.6467222
-15.879 3.546 -1.605 -0.016517015 0.51081496 -0.39180315 0.64398324
-16.075001 3.563 -1.626 -0.015565605 0.51221484 -0.39528868 0.64719349
-16.275999 3.553 -1.648 -0.019378249 0.51593703 -0.42477858 0.6685831
-16.485001 3.5450001 -1.67 -0.02399309 0.52019191 -0.39905053 0.65606141
-16.664 3.5280001 -1.689 -0.032074653 0.52376914 -0.40361035 0.66201526
-16.84 3.51 -1.7079999 -0.040188082 0.51999474 -0.40511221 0.66039801
-17.014999 3.49 -1.727 0.057837881 0.53090012 -0.53061193 0.75282747
-17.146999 3.461 -1.74 0.09254548 0.53538239 -0.49250755 0.73332304
-17.421 3.487 -1.771 -0.075861827 0.52315885 -0.39931118 0.66249496
-17.677 3.4230001 -1.7970001 -0.13944453 0.52840513 -0.47949663 0.72703075
-17.646 3.3599999 -1.793 -0.16833118 0.52228266 -0.50134099 0.74327475
-13.839 5.5009999 -1.544 0.47400591 0.062480435 -0.43721539 0.64787555
-13.828 5.4710002 -1.541 0.47311306 0.054741651 -0.43559986 0.64542997
-13.889 5.4450002 -1.5470001 0.47311306 0.054741651 -0.43559986 0.64542997
-13.888 5.3940001 -1.544 0.46829864 0.045851372 -0.44015193 0.64431334
-13.892 5.3449998 -1.543 0.46124187 0.041718137 -0.4338682 0.63460702
-13.88 5.2909999 -1.539 0.44652587 0.023302872 -0.43645719 0.62483859
-13.886 5.243 -1.538 0.44826791 0.036458798 -0.43541917 0.62598979
-13.874 5.1890001 -1.534 0.44771734 0.04003017 -0.43443665 0.62513071
-13.858 5.158 -1.531 0.44748282 0.04082251 -0.43338159 0.62428111
-13.86 5.1090002 -1.529 0.44707945 0.0334245 -0.42814651 0.61992472
-13.842 5.053 -1.525 0.45018214 0.04252214 -0.42810717 0.62269402
-13.848 5.006 -1.524 0.44589585 0.056186199 -0.41423896 0.61120695
-13.83 4.9510002 -1.52 0.44679689 0.047064252 -0.41211975 0.60965991
-13.84 4.9050002 -1.5190001 0.441921 0.053809054 -0.39263752 0.59359396
-13.833 4.8540001 -1.516 0.4427329 0.04579151 -0.39669997 0.59622157
-13.822 4.8249998 -1.5140001 0.44408002 0.03398148 -0.39595494 0.59593803
-13.809 4.7719998 -1.511 0.44299594 0.028999161 -0.39757887 0.59594905
-13.82 4.7270002 -1.51 0.44177306 0.026749935 -0.39758861 0.59494174
-13.803 4.6729999 -1.506 0.44205928 0.015875602 -0.39426842 0.59255046
-13.806 4.6259999 -1.505 0.44162127 0.017372862 -0.39081424 0.58997202
-13.808 4.5780001 -1.503 0.44329223 0.00222342 -0.39803395 0.59577173
-13.803 4.5279999 -1.501 0.44491771 0.0031347275 -0.39806235 0.59700525
-13.793 4.5009999 -1.499 0.44515097 -0.0018383367 -0.39878571 0.59765607
-13.8 4.4549999 -1.498 0.44419435 0.0057296688 -0.39489293 0.59437519
-13.797 4.4070001 -1.4960001 0.44429132 -0.0038371489 -0.39468348 0.5942933
-13.793 4.3579998 -1.494 0.44530633 0.0027159676 -0.3999958 0.5985831
-13.797 4.3109999 -1.492 0.44828504 0.013334997 -0.41691217 0.61233413
-13.788 4.2610002 -1.49 0.44744092 0.014439242 -0.41888428 0.61308718
-13.784 4.2119999 -1.488 0.44746763 0.02421231 -0.41845971 0.61312485
-13.78 4.1869998 -1.4859999 0.44948065 0.024720863 -0.41797256 0.61428416
-13.781 4.1399999 -1.485 0.44937804 0.035212521 -0.42042077 0.61638802
-13.777 4.092 -1.483 0.45097926 0.028650636 -0.42567 0.62080437
-13.78 4.046 -1.4809999 0.45238012 -0.0019667589 -0.43119007 0.6249612
-13.778 3.9979999 -1.48 0.45222414 -0.0089199562 -0.43094116 0.62473714
-13.779 3.9519999 -1.478 0.4506903 -0.065156609 -0.45942959 0.64687145
-13.782 3.9059999 -1.477 0.44899619 -0.084692776 -0.45122623 0.64216477
-13.832 3.8959999 -1.482 0.43893072 -0.13089459 -0.4571403 0.64712507
-13.714 3.816 -1.467 0.44268128 -0.12710999 -0.49659094 0.6772933
-13.703 3.767 -1.464 0.4252927 -0.17102593 -0.50389552 0.68120074
-13.718 3.7249999 -1.464 0.41068214 -0.20177977 -0.50449443 0.68109435
-13.759 3.6900001 -1.4680001 0.33299825 -0.31793079 -0.52939487 0.70158869
-13.872 3.6730001 -1.48 -0.31918997 0.42508295 -0.45534241 0.69993889
-13.997 3.6600001 -1.494 -0.19964397 0.48015678 -0.43481266 0.67784238
-14.122 3.6689999 -1.508 -0.096700817 0.50378907 -0.45375511 0.6848709
-14.277 3.6619999 -1.526 -0.052514013 0.50901836 -0.44416869 0.6776011
-14.443 3.6559999 -1.544 -0.066443488 0.50410408 -0.41979754 0.65936762
