# .PCD v0.7 - Point Cloud Data file format
VERSION 0.7
FIELDS x y z normal_x normal_y normal_z curvature
SIZE 4 4 4 4 4 4 4
TYPE F F F F F F F
COUNT 1 1 1 1 1 1 1
WIDTH 654
HEIGHT 1
VIEWPOINT 0 0 0 1 0 0 0
POINTS 654
DATA ascii
12.254 -7.2870002 0.60000002 0.038505726 0.43333167 -0.486 0.65226912
13.694 -8.0299997 0.64499998 0.49418157 -0.023065567 -0.40176296 0.63730758
13.676 -7.9619999 0.64300001 0.49584946 -0.016516134 -0.42945758 0.65618086
13.661 -7.8959999 0.64200002 0.49446705 -0.11741234 -0.39040467 0.64085811
12.759 -7.3460002 0.61299998 0.073977396 0.37768406 -0.47118926 0.60838902
12.77 -7.2989998 0.61299998 0.089703895 0.31486583 -0.46145824 0.5658012
13.592 -7.7140002 0.63800001 0.44807529 -0.29712081 0.029750977 0.53845835
13.583 -7.6529999 0.63700002 0.43832594 -0.2895034 0.056932259 0.52837783
13.574 -7.5910001 0.63599998 0.43542483 -0.33686292 0.089230038 0.55770373
13.362 -7.4169998 0.62900001 0.4357484 -0.27334055 -0.1318332 0.53101009
13.244 -7.3249998 0.62400001 -0.17526247 0.14751059 -0.28254443 0.36374119
13.329 -7.3169999 0.62599999 -0.23154968 0.085973233 -0.20820419 0.32304123
13.358 -7.2789998 0.62699997 -0.17941883 0.11294565 -0.21193813 0.29977593
13.39 -7.2410002 0.62699997 -0.17421575 0.1039013 -0.1869318 0.27584434
13.402 -7.1939998 0.62699997 -0.21134746 0.15524316 -0.27216452 0.37794405
13.409 -7.1430001 0.62599999 -0.20039761 0.15693849 -0.26106352 0.36461356
13.757 -7.2459998 0.63599998 -0.059954539 0.20047799 -0.28777581 0.3558102
13.905 -7.2690001 0.63999999 -0.041123819 0.23697647 -0.36292937 0.43539265
13.882 -7.2010002 0.63800001 -0.036132831 0.23394954 -0.34056148 0.41475305
13.897 -7.1539998 0.63800001 -0.043936118 0.23332009 -0.34166148 0.41605434
13.918 -7.1090002 0.63800001 -0.043936118 0.23332009 -0.34166148 0.41605434
14.14 -7.1669998 0.64399999 0.013284668 0.25378114 -0.42096958 0.49172834
14.273 -7.178 0.648 0.031437803 0.2530897 -0.40969938 0.48259333
14.375 -7.2020001 0.64999998 0.055715371 0.25676343 -0.41627344 0.49225527
14.528 -7.2220001 0.65399998 0.086780228 0.25157452 -0.39314863 0.47474876
14.666 -7.2329998 0.65799999 0.085369848 0.24834652 -0.35051364 0.43797696
16.063999 -7.8000002 0.699 0.50306928 -0.35830677 -0.44274408 0.75992417
15.102 -7.2729998 0.66900003 0.0055948589 0.24202946 -0.36476299 0.43779173
15.212 -7.2670002 0.67199999 0.033862092 0.24682745 -0.41092435 0.480551
15.474 -7.244 0.67799997 0.015165389 0.23256737 -0.42921647 0.48841003
16.079 -7.4660001 0.69599998 0.50669974 -0.26435894 -0.46773246 0.73851472
16.08 -7.4060001 0.69499999 0.50648844 -0.26811171 -0.4708271 0.74168229
16.077999 -7.3439999 0.69400001 0.37109843 0.085206568 -0.43530574 0.57832974
15.926 -7.2140002 0.68900001 0.0039305082 0.23534912 -0.36025947 0.43033886
16.054001 -7.2410002 0.69300002 0.37109843 0.085206568 -0.43530574 0.57832974
16.062 -7.184 0.69199997 0.37109843 0.085206568 -0.43530574 0.57832974
7.8610001 -7.6240001 0.458 0.092395708 0.3774972 -0.50143379 0.63441068
7.862 -7.5770001 0.45699999 0.092395708 0.3774972 -0.50143379 0.63441068
7.8899999 -7.5799999 0.45699999 0.087261289 0.3786678 -0.50011539 0.63333976
7.9749999 -7.6129999 0.45899999 0.039563771 0.38562256 -0.52034616 0.64886838
8.1009998 -7.6360002 0.46200001 0.030987578 0.3916277 -0.54100001 0.66859066
8.1590004 -7.6420002 0.463 0.013972761 0.3919138 -0.55207622 0.67718524
8.2209997 -7.652 0.46399999 0.014167773 0.39506873 -0.54569554 0.67384243
8.2819996 -7.6599998 0.465 0.0092300437 0.41023225 -0.54806238 0.68465179
8.2969999 -7.6500001 0.465 0.011613278 0.41030151 -0.54627228 0.68329757
8.3599997 -7.6599998 0.46700001 0.017553337 0.41237903 -0.54657233 0.68491304
8.3640003 -7.6149998 0.46599999 0.0056965007 0.41225317 -0.55190909 0.68890405
8.4200001 -7.618 0.46700001 0.001307535 0.41981634 -0.54360306 0.68684185
8.4729996 -7.6170001 0.46799999 0.01294963 0.41678143 -0.57227725 0.70807886
8.8269997 -7.6630001 0.47400001 -0.016466152 0.42691171 -0.55795383 0.70273554
8.8479996 -7.632 0.47400001 -0.0067665544 0.42897475 -0.53966469 0.68942231
8.9020004 -7.631 0.47499999 0.0023347721 0.4298957 -0.52637184 0.67961979
8.967 -7.6370001 0.477 0.01359438 0.4195036 -0.51645678 0.6655041
8.993 -7.6350002 0.477 0.012059478 0.41957331 -0.51619428 0.66531473
9.066 -7.6479998 0.47799999 0.038497254 0.43750691 -0.51544988 0.6771875
9.1339998 -7.6560001 0.47999999 0.027589142 0.43816578 -0.51556301 0.67716736
9.2229996 -7.6810002 0.48199999 0.049780607 0.45345226 -0.52389324 0.69466627
9.316 -7.6599998 0.48300001 0.062435929 0.46655297 -0.51848257 0.70028144
9.3850002 -7.6669998 0.484 0.070542812 0.47284374 -0.50902534 0.69832963
9.4160004 -7.6680002 0.48500001 0.068602785 0.47155377 -0.50503385 0.69435471
9.4980001 -7.5869999 0.48500001 0.069860727 0.47636706 -0.50535673 0.69799107
9.6590004 -7.665 0.48899999 0.036044735 0.47480857 -0.52135491 0.70608312
9.7220001 -7.6659999 0.49000001 -0.025406051 0.48988238 -0.50547856 0.70437121
9.8500004 -7.6420002 0.49200001 -0.14074518 0.45842081 -0.55602586 0.73425037
9.96 -7.6760001 0.495 0.45327333 -0.31187958 -0.43255448 0.6998778
10.039 -7.6880002 0.49599999 0.56141424 -0.075376458 -0.45711756 0.72789013
10.071 -7.6620002 0.49599999 0.56276244 -0.047517605 -0.43528229 0.71304291
10.072 -7.612 0.49599999 0.56668407 -0.043500099 -0.48636955 0.74804974
10.065 -7.5580001 0.495 0.56194162 -0.079427071 -0.47792584 0.74195695
10.034 -7.5100002 0.49399999 0.56069499 -0.088432238 -0.49622527 0.75394869
10.028 -7.4569998 0.493 0.54757535 -0.14092959 -0.51984447 0.76807433
10.013 -7.3969998 0.49200001 0.54456908 -0.14366157 -0.54714209 0.78521246
10.004 -7.342 0.491 0.55222028 -0.13987935 -0.55302149 0.79394346
9.9879999 -7.2820001 0.49000001 0.5406484 -0.14940923 -0.56177694 0.79386216
9.9949999 -7.2389998 0.48899999 0.51701784 -0.21292455 -0.57918888 0.80504912
10.042 -7.2490001 0.49000001 0.47189963 -0.2672343 -0.61168998 0.81747663
10.102 -7.244 0.491 -0.28469366 0.34308752 -0.3765806 0.58358586
10.067 -7.1719999 0.49000001 -0.2369061 0.38250452 -0.37430167 0.5852657
10.069 -7.125 0.48899999 -0.20222561 0.4093242 -0.37740299 0.59234661
10.116 -7.1110001 0.49000001 -0.13099702 0.45576808 -0.3910507 0.61465877
10.287 -7.1830001 0.49399999 -0.083851308 0.48635572 -0.44107997 0.6619097
10.293 -7.1389999 0.49399999 -0.069332898 0.49258429 -0.46306896 0.67961693
10.426 -7.2069998 0.49700001 -0.0028263107 0.48200551 -0.5319649 0.71786064
10.517 -7.2199998 0.49900001 0.0085856169 0.47437385 -0.54178268 0.72016162
10.443 -7.1220002 0.49599999 0.0011798814 0.51332575 -0.52368069 0.73331177
10.492 -7.1069999 0.49700001 0.038898218 0.50086981 -0.51904601 0.72235197
10.488 -7.0560002 0.49599999 0.035187699 0.50420839 -0.5155499 0.72198057
10.52 -7.0300002 0.49599999 0.0011696666 0.49504349 -0.47283143 0.6845721
10.612 -7.0430002 0.498 0.05018891 0.50145435 -0.52194834 0.72553807
11.154 -7.3260002 0.51200002 0.030540302 0.4941195 -0.50846618 0.70966512
11.158 -7.2789998 0.51200002 0.030540302 0.4941195 -0.50846618 0.70966512
11.227 -7.2729998 0.51300001 0.056161858 0.49884757 -0.50419784 0.71149033
13.967 -8.9779997 0.58600003 0.49470231 0.11878993 -0.52722687 0.73267287
13.968 -8.9169998 0.58600003 0.49382606 0.11771084 -0.53258222 0.73577434
13.984 -8.8660002 0.58499998 0.49047872 0.094317295 -0.53069174 0.72876531
11.605 -7.3119998 0.52100003 0.071342476 0.48480916 -0.50814426 0.7059322
11.633 -7.3039999 0.52100003 0.071171738 0.48572353 -0.50972372 0.70768005
11.683 -7.2839999 0.52200001 0.059242878 0.49397534 -0.50916487 0.71187794
13.892 -8.5950003 0.57999998 0.50032514 0.066292755 -0.52075827 0.72519594
13.847 -8.5080004 0.57800001 0.49296251 0.058345631 -0.50348532 0.70704579
13.85 -8.4490004 0.57800001 0.48449945 0.077202238 -0.46430922 0.67548722
13.854 -8.3920002 0.57700002 0.49646348 -0.0063878149 -0.45677212 0.67465365
12.142 -7.3330002 0.53100002 0.077849373 0.45723945 -0.50545877 0.68601531
12.194 -7.3119998 0.53200001 0.057217736 0.44582999 -0.50293916 0.67452657
12.275 -7.309 0.53399998 0.037662365 0.45698649 -0.50381112 0.68123472
12.372 -7.3140001 0.53600001 0.014006749 0.43088603 -0.51195794 0.66929805
13.74 -8.0609999 0.57099998 0.4859015 0.0056779236 -0.40481195 0.63245964
13.718 -7.9899998 0.56999999 0.49505591 -0.0096467435 -0.44433606 0.66528785
13.612 -7.8709998 0.56599998 0.4944281 -0.11462329 -0.45278662 0.68015689
12.957 -7.467 0.54900002 0.07278432 0.37841845 -0.52228928 0.64906406
12.798 -7.322 0.54400003 0.12114675 0.37044913 -0.53261846 0.65999359
13.611 -7.7290001 0.565 0.46868291 -0.33006629 -0.039403155 0.57459557
13.624 -7.6799998 0.56400001 0.45891246 -0.30626026 -0.026842937 0.55237353
13.612 -7.6170001 0.56400001 0.44746506 -0.28715169 0.0036036521 0.53168982
13.487 -7.4920001 0.56 0.44617912 -0.29250908 -0.036617994 0.53476936
13.281 -7.323 0.55400002 -0.21148561 0.14425516 -0.35996851 0.44171602
13.378 -7.349 0.55599999 0.44909766 -0.061459661 -0.40316221 0.6066348
13.398 -7.3049998 0.55599999 -0.27830705 0.085097432 -0.31024003 0.42537662
13.422 -7.2639999 0.55599999 -0.14056119 0.19545233 -0.29724136 0.38250685
13.47 -7.2350001 0.55699998 -0.097864017 0.1943928 -0.27048004 0.34716764
13.441 -7.1659999 0.55500001 -0.11730456 0.21137524 -0.33192962 0.41063017
13.922 -7.309 0.56599998 0.012015862 0.24057338 -0.36879051 0.44048423
13.949 -7.2950001 0.56699997 0.015896011 0.24247655 -0.36979324 0.44248682
13.937 -7.2329998 0.56599998 0.011620029 0.24041018 -0.36747134 0.43928039
13.936 -7.178 0.565 0.015500178 0.24231336 -0.36847407 0.44128126
13.941 -7.125 0.565 0.014335721 0.26203883 -0.37955123 0.46144232
14.188 -7.1939998 0.57099998 0.025748871 0.25347978 -0.41649848 0.48824787
14.303 -7.1960001 0.57300001 0.019233882 0.25357217 -0.41166228 0.48387459
14.403 -7.1900001 0.57499999 0.049941398 0.2575582 -0.42121434 0.49623773
14.527 -7.223 0.57800001 0.086870849 0.2572329 -0.39931726 0.48287636
14.683 -7.2420001 0.58099997 0.062226228 0.2551198 -0.37487459 0.45769987
14.865 -7.2740002 0.58499998 0.031026524 0.2445794 -0.36775851 0.44275054
14.929 -7.2480001 0.58600003 0.028969068 0.24484083 -0.36949119 0.44419587
15.082 -7.263 0.58999997 0.033277296 0.24025944 -0.3506164 0.42633772
15.121 -7.223 0.58999997 0.003847789 0.24277636 -0.36391816 0.43748325
15.458 -7.3239999 0.59799999 0.018632364 0.23199362 -0.39806125 0.46110842
15.401 -7.2680001 0.59600002 0.028541543 0.24763495 -0.40084255 0.4720301
15.565 -7.2849998 0.60000002 -0.014706609 0.23186547 -0.41576478 0.47627538
15.971 -7.4130001 0.60900003 -0.001403207 0.23433924 -0.35867229 0.42844212
15.727 -7.2399998 0.60299999 0.01158756 0.23583585 -0.39466745 0.45990783
16.056999 -7.3309999 0.61000001 0.36877087 0.08751592 -0.41418841 0.56142944
15.985 -7.2379999 0.60799998 -0.010696296 0.23219433 -0.34638888 0.41714969
16.114 -7.2350001 0.611 0.36572352 0.089153081 -0.41524893 0.56047624
16.112 -7.204 0.61000001 0.36991403 0.093779027 -0.41792899 0.56594658
7.835 -7.5929999 0.37400001 0.10409485 0.37486771 -0.48172051 0.61920607
7.862 -7.5710001 0.37400001 0.10097471 0.37565279 -0.48263708 0.61987859
7.9330001 -7.592 0.375 0.08261621 0.37975067 -0.47980687 0.61745501
7.9829998 -7.592 0.375 0.061549194 0.38303024 -0.48885244 0.62408108
8.0880003 -7.6199999 0.377 0.033996828 0.39295474 -0.52160054 0.65393913
8.1370001 -7.618 0.377 0.020754417 0.39523306 -0.5013566 0.63874751
8.2049999 -7.6329999 0.37799999 0.010903157 0.40367687 -0.50788158 0.64885867
8.3999996 -7.7670002 0.382 0.039959632 0.40506223 -0.54067224 0.67675596
8.3509998 -7.625 0.38 0.0037047975 0.41344023 -0.50532293 0.65291488
8.3830004 -7.6290002 0.38 0.043160763 0.41985753 -0.5213713 0.67079896
8.4200001 -7.6149998 0.38 0.030488404 0.42020795 -0.5297156 0.67683297
8.8059998 -7.6440001 0.38499999 -0.0065850131 0.42848194 -0.53393376 0.68463522
8.8400002 -7.625 0.38499999 -0.011169303 0.42966408 -0.5308938 0.68306971
8.8929996 -7.6220002 0.38600001 -0.027156519 0.4294365 -0.52858424 0.68158233
8.9499998 -7.6230001 0.38699999 -0.0011024773 0.41990605 -0.5154925 0.66487205
9.0200005 -7.6329999 0.38699999 0.014125559 0.43792343 -0.52145469 0.68109578
9.0699997 -7.6269999 0.38800001 0.023513583 0.43800333 -0.51073134 0.67323571
9.1260004 -7.6500001 0.389 0.02715816 0.4568412 -0.50212896 0.67939305
9.3039999 -7.652 0.391 0.061769221 0.46701866 -0.50112426 0.68778443
9.3509998 -7.6409998 0.391 0.070556864 0.47298133 -0.50048339 0.69222343
9.4060001 -7.6370001 0.39199999 0.066692695 0.4715488 -0.50094616 0.69119698
9.6020002 -7.6719999 0.39500001 0.061741598 0.46910816 -0.50513643 0.6921252
9.6479998 -7.6589999 0.39500001 0.018841667 0.47132283 -0.50130618 0.68833721
9.7080002 -7.6570001 0.396 -0.014348809 0.49152344 -0.51103967 0.70919865
10.238 -8.0249996 0.40599999 0.37775311 0.38819501 -0.50632 0.74145311
9.9049997 -7.6880002 0.398 -0.1147721 0.4712604 -0.52634287 0.71574843
9.948 -7.671 0.39899999 0.44808659 -0.32194504 -0.45613226 0.71588188
10.018 -7.6760001 0.40000001 0.54480624 -0.14637093 -0.45430967 0.72431731
10.045 -7.6459999 0.40000001 0.56621689 -0.049245264 -0.4942134 0.75317568
10.048 -7.599 0.39899999 0.56608105 -0.050383985 -0.4906984 0.75084698
10.035 -7.54 0.39899999 0.56207299 -0.080143198 -0.48783314 0.74855202
10.013 -7.473 0.398 0.55069965 -0.13198677 -0.50294995 0.7573964
10.002 -7.441 0.39700001 0.55107856 -0.13040259 -0.50585186 0.75932771
9.9799995 -7.3759999 0.396 0.55573171 -0.13151547 -0.53543419 0.78283066
9.9700003 -7.3200002 0.396 0.54671299 -0.13416567 -0.54660559 0.78464842
9.9619999 -7.2659998 0.39500001 0.5366925 -0.12823805 -0.56864011 0.79236066
9.9540005 -7.2119999 0.39500001 0.51654309 -0.17465042 -0.56980753 0.78866988
10.017 -7.21 0.39500001 0.50392997 -0.24551481 -0.55448341 0.78846353
10.097 -7.2199998 0.39700001 -0.23735464 0.39440733 -0.40413183 0.61254948
10.044 -7.1339998 0.39500001 -0.26758927 0.36268231 -0.43812156 0.62856418
10.047 -7.1129999 0.39500001 -0.20324773 0.41187796 -0.42456663 0.62546772
10.176 -7.1560001 0.39700001 -0.14004217 0.45536786 -0.40887719 0.62781549
10.236 -7.151 0.398 -0.085253045 0.48434797 -0.48154908 0.68829542
10.365 -7.1440001 0.39899999 0.010428306 0.51427746 -0.52359241 0.73398846
10.487 -7.1810002 0.40099999 0.038534906 0.47913778 -0.52224326 0.70978588
10.498 -7.1399999 0.40099999 0.034769606 0.50111449 -0.50111151 0.70953321
10.468 -7.0949998 0.40000001 0.0017860085 0.51035863 -0.4882226 0.70627928
10.476 -7.052 0.40000001 0.015562698 0.51195228 -0.49054033 0.70920175
10.508 -7.026 0.40000001 0.0070503578 0.49780357 -0.47915694 0.69097722
10.651 -7.0739999 0.40200001 0.19178045 0.48937815 -0.51016843 0.73249066
10.972 -7.2379999 0.40799999 0.15086311 0.49110994 -0.51157701 0.72502393
11.038 -7.2319999 0.40799999 0.053961094 0.49520046 -0.5054431 0.7096535
11.099 -7.2480001 0.40900001 0.032697774 0.49437201 -0.50262946 0.70576853
11.174 -7.2470002 0.41 0.033656359 0.49447259 -0.49788094 0.70251071
11.244 -7.2420001 0.41100001 0.066605493 0.49880692 -0.50596428 0.71361369
11.322 -7.2420001 0.412 0.064923376 0.4988676 -0.50331157 0.71162242
11.407 -7.2470002 0.41299999 0.05937428 0.48509431 -0.5055213 0.70313126
11.487 -7.2470002 0.414 0.057639383 0.4849849 -0.51072311 0.7066617
11.566 -7.2459998 0.41499999 0.073948704 0.4847745 -0.50549418 0.70427203
11.63 -7.2610002 0.41600001 0.078129366 0.485558 -0.50687504 0.70625281
11.71 -7.2600002 0.417 0.06640254 0.49092662 -0.50972813 0.71080309
11.791 -7.2589998 0.41800001 0.059870049 0.47278726 -0.49848226 0.68963522
11.88 -7.263 0.41999999 0.064314112 0.46193659 -0.4893423 0.67600119
11.962 -7.2620001 0.421 0.054977417 0.4667227 -0.4992601 0.68564802
12.047 -7.2620001 0.42199999 0.071009807 0.45494401 -0.49455917 0.6757257
12.123 -7.256 0.42300001 0.081871048 0.4571383 -0.49781799 0.68080908
12.204 -7.2789998 0.42399999 0.062989235 0.44576964 -0.49595854 0.66981572
12.296 -7.2810001 0.42500001 0.043048568 0.4449656 -0.50128925 0.67166841
12.382 -7.2800002 0.426 0.04850103 0.43016273 -0.5026567 0.66336721
12.467 -7.2779999 0.42699999 0.047206849 0.44626194 -0.51905519 0.68614614
12.556 -7.277 0.428 0.047797073 0.44058824 -0.51132357 0.67664933
12.651 -7.2789998 0.43000001 0.086759344 0.41151279 -0.50298041 0.65563655
12.74 -7.277 0.43099999 0.099819258 0.37532139 -0.51489013 0.64493555
12.824 -7.2989998 0.43200001 0.094820462 0.30261445 -0.50083649 0.59279305
12.912 -7.2950001 0.433 0.062739342 0.30693284 -0.50023478 0.59023625
13.015 -7.3000002 0.435 -0.0096572824 0.19170094 -0.36360633 0.41115943
13.106 -7.2969999 0.43599999 -0.078308254 0.18194059 -0.41211081 0.45724159
13.193 -7.2909999 0.43700001 -0.17199853 0.16383642 -0.39111453 0.45759857
13.386 -7.289 0.44 -0.29660574 0.12826374 -0.4069992 0.51968729
13.384 -7.2600002 0.43900001 -0.26209131 0.15217683 -0.38230893 0.48786244
13.445 -7.2389998 0.44 -0.18117154 0.19483611 -0.3760176 0.46062294
13.409 -7.1659999 0.43900001 -0.22015718 0.20636013 -0.40774173 0.50725436
13.421 -7.118 0.43900001 -0.18869203 0.22112927 -0.39405829 0.48967823
13.806 -7.2670002 0.44499999 0.00031687319 0.23699781 -0.34027493 0.41467467
13.933 -7.2789998 0.447 0.041029911 0.23962113 -0.36800656 0.44105619
13.908 -7.21 0.44600001 0.036672655 0.25946903 -0.37723505 0.45932052
13.907 -7.1820002 0.44600001 0.044291377 0.25881773 -0.37575358 0.45840931
13.914 -7.1300001 0.44600001 0.044291377 0.25881773 -0.37575358 0.45840931
14.132 -7.1859999 0.449 0.021383673 0.26840374 -0.41101283 0.49135464
14.279 -7.2049999 0.45100001 0.020029824 0.25408438 -0.42967394 0.49957958
14.373 -7.1960001 0.45199999 0.054582357 0.25855321 -0.42533281 0.50073642
14.485 -7.1950002 0.454 0.05964765 0.25918722 -0.41931516 0.49654916
14.639 -7.2140002 0.456 0.055845954 0.25785679 -0.39389914 0.4740943
14.725 -7.2290001 0.45699999 0.037406083 0.25418437 -0.38356426 0.46166053
14.933 -7.2729998 0.46000001 0.030482307 0.24770668 -0.40008348 0.47154489
14.968 -7.2319999 0.461 0.032604247 0.24326372 -0.39610916 0.46598577
15.083 -7.2290001 0.46200001 0.019039888 0.24673036 -0.40333492 0.47319916
15.299 -7.2740002 0.465 0.033670217 0.24729294 -0.39873001 0.47039673
15.39 -7.2579999 0.46700001 0.03252532 0.25531399 -0.40500247 0.47986472
15.418 -7.2119999 0.46700001 0.030309685 0.25529826 -0.40343583 0.47838932
15.678 -7.3039999 0.47099999 0.026638774 0.2345041 -0.38769037 0.45387843
15.681 -7.2459998 0.47 0.018890491 0.24395335 -0.39271274 0.46270227
16.030001 -7.3470001 0.47600001 0.0030688271 0.23590201 -0.37052482 0.43925825
15.93 -7.2399998 0.47400001 0.0017251102 0.23766524 -0.38971904 0.45647418
16.047001 -7.2329998 0.47499999 0.0042119985 0.24216512 -0.3742654 0.44579849
16.086 -7.1900001 0.47600001 0.040792525 0.24168161 -0.37723979 0.44987097
7.8179998 -7.586 0.317 0.10488182 0.36995092 -0.49462044 0.62650877
7.8109999 -7.5549998 0.317 0.1110543 0.36836955 -0.49454319 0.62657976
7.8870001 -7.5809999 0.31799999 0.094722673 0.37709492 -0.4957312 0.63001776
7.947 -7.5900002 0.31799999 0.076336205 0.38036907 -0.49202204 0.62657285
8.1040001 -7.6430001 0.31999999 0.028382448 0.39287299 -0.49115521 0.62959367
8.1470003 -7.6350002 0.31999999 0.022673728 0.39508113 -0.50044584 0.63800412
8.1999998 -7.6370001 0.32100001 0.014283039 0.40351287 -0.50592399 0.64729106
8.2530003 -7.6620002 0.32100001 0.012259019 0.40729266 -0.51000154 0.65279335
8.2469997 -7.6069999 0.32100001 0.016767822 0.40699142 -0.51097423 0.65346605
8.3210001 -7.6269999 0.32100001 0.0081376322 0.4080956 -0.50882655 0.65231335
8.3610001 -7.6160002 0.322 0.029351227 0.41131032 -0.5168851 0.66121697
8.3920002 -7.5960002 0.322 0.041722875 0.42011806 -0.51861489 0.66873115
8.4469995 -7.598 0.322 0.021791264 0.42243358 -0.52366573 0.67316478
8.7770004 -7.6230001 0.32499999 -0.0032070861 0.42876422 -0.53029746 0.68195635
8.8430004 -7.632 0.32499999 -0.020076483 0.42985082 -0.52579069 0.67943406
8.8859997 -7.6199999 0.32600001 -0.020338388 0.43005016 -0.52222359 0.67681181
8.9200001 -7.625 0.32600001 -0.023530008 0.42987049 -0.52374107 0.67797273
8.9890003 -7.6350002 0.32600001 0.012106505 0.43802974 -0.52034563 0.68027657
9.0749998 -7.6589999 0.32699999 0.010091108 0.45683533 -0.50764692 0.68301225
9.1149998 -7.6440001 0.32699999 0.024293274 0.45694897 -0.50456965 0.68116301
9.177 -7.6469998 0.32800001 0.050538011 0.46489358 -0.50329036 0.68700898
9.2229996 -7.6360002 0.32800001 0.053013489 0.4647049 -0.5074029 0.69008607
9.3000002 -7.6750002 0.329 0.063583232 0.46691278 -0.5039196 0.68991691
9.3409996 -7.6589999 0.329 0.063074432 0.46692783 -0.50441962 0.69024569
9.4029999 -7.6609998 0.33000001 0.059711192 0.47167596 -0.50632948 0.69455969
9.5889997 -7.6630001 0.331 0.066061124 0.46897715 -0.50555235 0.69273865
9.6350002 -7.651 0.33199999 0.023053126 0.46494013 -0.5092873 0.6899814
9.6870003 -7.6659999 0.33199999 -0.0075406209 0.46915263 -0.51442719 0.69627321
9.7670002 -7.6799998 0.333 -0.044550966 0.48547828 -0.52459741 0.71615386
9.8219995 -7.6729999 0.333 -0.099291891 0.47161075 -0.52389932 0.71186101
9.8870001 -7.6739998 0.33399999 -0.16545844 0.44189605 -0.5294072 0.70916891
9.96 -7.6799998 0.33399999 0.44430935 -0.32816914 -0.47656798 0.729536
10.025 -7.6810002 0.33500001 0.56095451 -0.082971409 -0.46896261 0.73585331
10.034 -7.6370001 0.33500001 0.56678301 -0.040865269 -0.48085615 0.74440283
10.007 -7.592 0.33399999 0.55657095 -0.10802498 -0.48267066 0.7445882
10.001 -7.5380001 0.33399999 0.55420846 -0.11875346 -0.49280825 0.75107217
9.9890003 -7.48 0.333 0.55253869 -0.13836324 -0.5053829 0.7614823
9.9770002 -7.4229999 0.333 0.55579937 -0.12641063 -0.50145495 0.75917697
9.96 -7.362 0.33199999 0.54547691 -0.12047204 -0.52749228 0.76831418
9.948 -7.3039999 0.33199999 0.54002565 -0.10126102 -0.52805167 0.76204991
9.9449997 -7.2540002 0.33199999 0.530505 -0.14871922 -0.52735138 0.76266146
9.9499998 -7.2340002 0.33199999 0.51721197 -0.18414325 -0.53145736 0.76410991
10.021 -7.2379999 0.33199999 0.50953877 -0.23483486 -0.522295 0.76653063
10.062 -7.2189999 0.33199999 -0.30027089 0.33572733 -0.45323652 0.63898259
10.024 -7.1440001 0.33199999 -0.26418763 0.36801612 -0.45445192 0.64168334
10.038 -7.1069999 0.33199999 -0.24155934 0.41783825 -0.46986774 0.67358398
10.257 -7.2129998 0.33399999 -0.083039045 0.48499092 -0.51143515 0.70970249
10.243 -7.1560001 0.33399999 -0.056994006 0.49244869 -0.48587513 0.69413877
10.34 -7.151 0.33399999 -0.011980955 0.51235014 -0.50505233 0.7195304
10.464 -7.1880002 0.336 -0.010224525 0.48489636 -0.50431305 0.69968611
10.455 -7.1339998 0.33500001 -0.012194395 0.50636834 -0.50451481 0.71490753
10.453 -7.0840001 0.33500001 -0.0066340603 0.5131349 -0.49748114 0.71472991
10.464 -7.0440001 0.33500001 0.0065365881 0.51633257 -0.49948311 0.71841872
10.504 -7.0229998 0.33500001 0.016700137 0.50419438 -0.49300864 0.70537108
14.066 -9.3620005 0.37799999 0.49640274 0.16081995 -0.43957278 0.6822778
14.057 -9.2930002 0.37799999 0.5108512 0.13712718 -0.43643731 0.68574804
11.123 -7.309 0.34200001 0.032247227 0.4943426 -0.50270963 0.70578426
11.141 -7.2709999 0.34200001 0.032247227 0.4943426 -0.50270963 0.70578426
13.991 -9.0609999 0.37599999 0.49307615 0.1746553 -0.51216549 0.73208064
13.969 -8.9849997 0.375 0.50251698 0.12664747 -0.50350213 0.7225492
13.954 -8.9130001 0.375 0.50611198 0.10508479 -0.50021595 0.71931088
13.826 -8.8009996 0.373 0.50705689 0.12389287 -0.50540692 0.72656196
11.596 -7.335 0.34599999 0.075505659 0.49906817 -0.50573391 0.71451873
11.592 -7.2820001 0.34599999 0.068799593 0.49925596 -0.50746477 0.71519953
13.785 -8.5340004 0.37099999 0.48886985 0.11105894 -0.51749176 0.72050363
13.815 -8.4329996 0.37099999 0.50329816 0.045200095 -0.51364464 0.7205435
12.082 -7.3530002 0.34999999 0.065290466 0.47170389 -0.50516677 0.69423401
12.086 -7.303 0.34999999 0.064350009 0.47175473 -0.5040617 0.69337696
12.179 -7.3070002 0.35100001 0.073635161 0.45593029 -0.49158475 0.67449993
12.252 -7.2989998 0.35100001 0.059994336 0.44483733 -0.49323893 0.66690642
13.699 -8.0410004 0.368 0.46192348 0.075288057 -0.48390895 0.67320836
13.671 -7.967 0.36700001 0.48967376 0.010327294 -0.46947715 0.67845106
13.644 -7.9229999 0.36700001 0.49576929 -0.0016856194 -0.46775463 0.68160433
12.758 -7.3569999 0.35600001 0.11955117 0.44546479 -0.51312655 0.68994945
12.767 -7.309 0.35600001 0.11965743 0.37780279 -0.50204694 0.63961238
13.591 -7.7220001 0.36500001 0.43808681 -0.26907444 -0.11200981 0.52618182
13.578 -7.658 0.36500001 0.43349949 -0.26154608 -0.12119576 0.52059251
13.559 -7.5910001 0.36399999 0.45359972 -0.1202784 -0.39050081 0.61050022
13.276 -7.3790002 0.361 -0.21588825 0.14376885 -0.39806136 0.47511059
13.26 -7.3429999 0.36000001 -0.22837192 0.13665611 -0.38071546 0.4645136
13.355 -7.3410001 0.361 0.3729479 -0.61192393 -0.41011071 0.82567054
13.355 -7.2859998 0.361 -0.2828005 0.14534438 -0.41476017 0.52261567
13.404 -7.2579999 0.361 -0.24598826 0.16494349 -0.41132158 0.50685501
13.39 -7.197 0.361 -0.21690731 0.20866495 -0.41466647 0.51238477
13.393 -7.1440001 0.361 -0.19927567 0.22301601 -0.41601634 0.51236367
13.417 -7.1300001 0.361 -0.19701734 0.22114073 -0.41653672 0.51109868
13.602 -7.1729999 0.36300001 -0.078416035 0.24119364 -0.33015448 0.41632369
13.713 -7.1760001 0.36399999 -0.035369292 0.25435421 -0.34331766 0.42873544
13.782 -7.1570001 0.36399999 0.0078461822 0.2611571 -0.37046778 0.45333317
13.854 -7.1389999 0.36500001 0.047793321 0.27101499 -0.38650221 0.47446525
13.931 -7.1240001 0.36500001 0.053405881 0.27110559 -0.39567593 0.48260736
14.254 -7.2319999 0.36899999 0.027493313 0.27217442 -0.42671701 0.50687498
14.324 -7.2389998 0.36899999 0.039400157 0.27418959 -0.44300729 0.52248228
14.395 -7.2179999 0.37 0.04267858 0.28275371 -0.44283471 0.52713728
14.527 -7.2270002 0.37099999 0.049945049 0.2726939 -0.42252928 0.50535876
14.641 -7.2259998 0.37200001 0.044554055 0.27337858 -0.42925057 0.51085907
14.842 -7.2670002 0.37400001 0.033686683 0.25680107 -0.43142515 0.50319898
14.906 -7.2399998 0.375 0.035084829 0.24840951 -0.41799399 0.48750097
15.02 -7.2379999 0.37599999 0.026415512 0.24713016 -0.41391701 0.48280263
15.099 -7.217 0.37599999 0.01610402 0.24512959 -0.41049081 0.47838327
15.284 -7.276 0.37799999 0.027850913 0.24751872 -0.39869714 0.47010702
15.381 -7.263 0.37900001 0.037523571 0.2543962 -0.3955957 0.47182775
15.68 -7.283 0.382 0.010456143 0.24579838 -0.39817542 0.46804896
15.712 -7.2379999 0.382 0.0083945878 0.24590433 -0.40037045 0.46993181
15.966 -7.2940001 0.38499999 0.0071416744 0.23555568 -0.35968432 0.43001199
15.949 -7.2259998 0.384 -0.0062560411 0.24272767 -0.38218045 0.45278886
16.059999 -7.2459998 0.38499999 0.036781475 0.24075541 -0.36740443 0.44079706
16.052 -7.1810002 0.38499999 0.0046616592 0.25334001 -0.38653573 0.46218258
7.7620001 -7.5310001 0.241 0.10343812 0.37013307 -0.50179631 0.63205814
7.796 -7.5159998 0.241 0.10549755 0.3697651 -0.49630004 0.62782937
7.8610001 -7.5549998 0.241 0.091808528 0.37304494 -0.49360043 0.62548602
7.9239998 -7.5679998 0.241 0.074461207 0.3807213 -0.49279556 0.62716877
8.0500002 -7.592 0.242 0.035685297 0.39397168 -0.48582375 0.62650764
8.1009998 -7.5929999 0.242 0.04353372 0.40163606 -0.4901484 0.63517886
8.151 -7.592 0.242 0.0307336 0.40230504 -0.49298063 0.637043
8.368 -7.7459998 0.243 0.036142819 0.40237492 -0.49539638 0.63924128
8.283 -7.5939999 0.242 0.0099126743 0.40757096 -0.50518394 0.64917111
8.3179998 -7.579 0.242 0.010600852 0.40800112 -0.50837904 0.65194064
8.3719997 -7.5799999 0.242 0.042475466 0.41285819 -0.51585627 0.66209042
8.7329998 -7.6370001 0.243 -0.017438835 0.4286499 -0.52897656 0.68107343
8.7510004 -7.605 0.243 -0.003905226 0.4288522 -0.52901947 0.68102211
8.7969999 -7.5970001 0.243 -0.015837522 0.42881361 -0.52715904 0.67972684
8.8540001 -7.598 0.244 -0.026472207 0.42845595 -0.52673376 0.67950255
8.915 -7.6009998 0.244 -0.030053355 0.42991966 -0.51775348 0.67364889
8.9580002 -7.6139998 0.244 -0.026168481 0.43772951 -0.51394165 0.67559451
9.0129995 -7.612 0.244 -0.0020373333 0.43840769 -0.51454788 0.67599183
9.1040001 -7.6409998 0.244 0.017608788 0.45699969 -0.5135541 0.68767476
9.1280003 -7.612 0.244 0.024708584 0.45684817 -0.50928175 0.6846084
9.1929998 -7.618 0.244 0.053525768 0.46453348 -0.51326472 0.69433206
9.2790003 -7.6399999 0.245 0.067595758 0.46516708 -0.51047069 0.69392353
9.3170004 -7.6220002 0.245 0.064629361 0.46525273 -0.51195246 0.69478941
9.5500002 -7.6890001 0.245 0.073567837 0.46819767 -0.5201478 0.70368671
9.5430002 -7.6339998 0.245 0.070044309 0.47058558 -0.52062863 0.70527381
9.6099997 -7.638 0.245 0.042977482 0.4648304 -0.52350605 0.70140779
9.6700001 -7.6360002 0.24600001 0.016560782 0.48922324 -0.53376228 0.72423464
9.7390003 -7.6420002 0.24600001 -0.067213804 0.48089814 -0.50120974 0.69784808
9.7810001 -7.6500001 0.24600001 -0.086750269 0.47447541 -0.52595228 0.71363741
9.8470001 -7.6529999 0.24600001 -0.1480478 0.45052281 -0.55305547 0.72853231
9.9110003 -7.652 0.24600001 -0.16218966 0.4393625 -0.57702219 0.74316853
9.9840002 -7.6589999 0.24600001 0.53085214 -0.17876181 -0.45070192 0.718952
9.9949999 -7.618 0.24600001 0.54781485 -0.13727355 -0.45785013 0.7270295
9.9890003 -7.5630002 0.24600001 0.55406868 -0.12976889 -0.46522406 0.73502755
9.9919996 -7.5159998 0.24600001 0.56090766 -0.10350752 -0.48168492 0.74655986
9.9540005 -7.4629998 0.24600001 0.54775047 -0.10358523 -0.48729265 0.74041516
9.9390001 -7.4029999 0.24600001 0.54227591 -0.1352651 -0.51593345 0.76062286
9.9300003 -7.348 0.24600001 0.54385757 -0.11475287 -0.50172508 0.74878389
9.9160004 -7.289 0.24600001 0.53528732 -0.14546186 -0.50187749 0.74804592
9.8959999 -7.2259998 0.245 0.53115559 -0.15698442 -0.50654781 0.75057381
9.941 -7.2119999 0.24600001 0.51186639 -0.214802 -0.49158576 0.7414875
9.9799995 -7.1919999 0.24600001 0.49186397 -0.25680247 -0.49129277 0.74111152
10.027 -7.2020001 0.24600001 0.46482736 -0.30448031 -0.50106353 0.74822283
9.9779997 -7.119 0.245 0.42724538 -0.31428573 -0.49586701 0.72608417
10.003 -7.0900002 0.245 -0.23964533 0.41302407 -0.48131463 0.6779989
10.228 -7.2020001 0.24600001 -0.10686915 0.47717658 -0.50118577 0.70021832
10.188 -7.1259999 0.24600001 -0.075257614 0.48756838 -0.50027496 0.70261061
10.226 -7.1040001 0.24600001 -0.041776143 0.49587435 -0.511226 0.7134344
10.429 -7.198 0.24699999 -0.049766529 0.48858783 -0.53299427 0.72476041
10.423 -7.1700001 0.24699999 -0.022837728 0.50933623 -0.53470016 0.73881608
10.416 -7.1170001 0.24699999 -0.01009566 0.51161826 -0.52893329 0.73595214
10.401 -7.0580001 0.24600001 0.0040326938 0.51347995 -0.52639967 0.73537374
10.404 -7.013 0.24600001 -0.014075845 0.54597592 -0.52278674 0.75603825
10.451 -6.9970002 0.24600001 -0.036066055 0.54239899 -0.52237374 0.75390434
11.098 -7.3060002 0.249 0.05904077 0.49535713 -0.4927913 0.70121878
11.081 -7.2449999 0.249 0.058856897 0.49535292 -0.49242821 0.7009452
11.162 -7.2480001 0.249 0.045558318 0.49505469 -0.49601638 0.70227271
11.567 -7.3070002 0.25 0.055497337 0.4995046 -0.50288635 0.71097076
11.544 -7.2670002 0.25 0.062350705 0.49943644 -0.50459099 0.71269655
11.625 -7.2670002 0.25 0.062238727 0.50032789 -0.50140458 0.7110613
12.045 -7.322 0.25099999 0.0555338 0.46885568 -0.50581294 0.69192225
12.032 -7.2620001 0.25099999 0.0555338 0.46885568 -0.50581294 0.69192225
12.142 -7.303 0.25099999 0.067391306 0.47116289 -0.50188458 0.6916821
12.187 -7.2779999 0.252 0.056651216 0.4563686 -0.49824759 0.67803562
12.289 -7.2870002 0.252 0.066927597 0.44459409 -0.49145675 0.66608775
13.518 -7.9039998 0.25600001 0.4786061 0.082559355 -0.50761783 0.70253521
12.69 -7.3379998 0.25299999 0.11249869 0.39485845 -0.50220776 0.64867693
12.705 -7.2930002 0.25299999 0.11249869 0.39485845 -0.50220776 0.64867693
13.043 -7.434 0.25400001 0.0497435 0.34840399 -0.46333489 0.58184099
13.317 -7.5349998 0.255 0.40839931 0.007730037 -0.39517218 0.56834042
13.183 -7.3499999 0.25400001 -0.21698901 0.18769035 -0.43948352 0.52484065
13.211 -7.3109999 0.25400001 -0.23022671 0.18043742 -0.42969441 0.51980698
13.277 -7.3210001 0.255 -0.28195703 0.14628175 -0.43481123 0.53847831
13.303 -7.2810001 0.255 -0.27379277 0.15231901 -0.42996362 0.53200781
13.338 -7.2459998 0.255 -0.25743496 0.19058342 -0.44905192 0.55158174
13.347 -7.1960001 0.255 -0.23835486 0.20267044 -0.43949723 0.53948694
13.343 -7.1399999 0.255 -0.25514162 0.19354251 -0.43045861 0.53651708
13.378 -7.105 0.255 -0.20900437 0.23460267 -0.4344447 0.53615618
13.457 -7.0929999 0.255 -0.20067212 0.2402492 -0.42683586 0.52931827
13.571 -7.099 0.255 -0.096817434 0.26994324 -0.40386555 0.49532852
13.665 -7.1209998 0.255 -0.044356532 0.26626927 -0.38025877 0.46632987
13.771 -7.1209998 0.25600001 0.027306169 0.27119023 -0.37322062 0.46215084
13.847 -7.105 0.25600001 0.059088085 0.2715463 -0.40029621 0.48730469
14.093 -7.177 0.257 0.04503902 0.27375853 -0.39954618 0.48642513
14.273 -7.2119999 0.257 0.037537873 0.28305948 -0.44147009 0.52576381
14.32 -7.1799998 0.257 0.045797691 0.27950478 -0.4405289 0.52372324
14.432 -7.1789999 0.25799999 0.031907689 0.28034335 -0.43805122 0.521056
14.537 -7.2030001 0.25799999 0.040423594 0.28210789 -0.43381888 0.51905465
14.66 -7.2069998 0.25799999 0.048116531 0.2780484 -0.43261668 0.51651067
14.855 -7.2449999 0.259 0.03139009 0.2704367 -0.4439562 0.5207864
14.942 -7.23 0.259 0.02499868 0.27463311 -0.44405457 0.5227167
15.004 -7.2020001 0.259 0.013736391 0.27492797 -0.4437643 0.52220762
15.137 -7.2069998 0.25999999 0.00060944073 0.27279222 -0.44368103 0.52083474
15.246 -7.23 0.25999999 0.0027373163 0.27692887 -0.43617654 0.51666921
15.362 -7.2270002 0.25999999 0.019576902 0.27386829 -0.41407818 0.49683782
15.506 -7.2350001 0.26100001 0.031786948 0.2648226 -0.39784235 0.47897804
15.631 -7.2340002 0.26100001 0.010971235 0.25907665 -0.40653253 0.48219267
15.76 -7.2340002 0.26100001 0.0061695492 0.26498973 -0.42381757 0.49987894
15.878 -7.2280002 0.26199999 -0.020897634 0.26735437 -0.43222046 0.50865471
16.006001 -7.2249999 0.26199999 0.0028903112 0.26241428 -0.39977396 0.4782142
15.988 -7.1869998 0.26199999 -0.023051091 0.26656938 -0.41532478 0.49404985
7.8759999 -7.6479998 0.189 0.075615689 0.38119093 -0.48513427 0.62159431
7.8559999 -7.5799999 0.19 0.082871675 0.37499112 -0.48664415 0.61992627
7.9089999 -7.6079998 0.189 0.065354012 0.38239229 -0.48942977 0.62452906
7.9809999 -7.6290002 0.189 0.033401527 0.38664874 -0.47473207 0.61317492
8.1210003 -7.664 0.189 0.032707058 0.39230633 -0.47842598 0.61956877
8.177 -7.6690001 0.189 0.027620899 0.39466846 -0.48066753 0.62254912
8.2220001 -7.6620002 0.189 0.016289447 0.40331173 -0.47328827 0.62203497
8.2779999 -7.6659999 0.189 0.010679056 0.40752247 -0.47708115 0.62753093
8.2989998 -7.6609998 0.189 0.038484789 0.40603936 -0.47905597 0.62916106
8.3769999 -7.6849999 0.189 0.056760065 0.40742275 -0.47928506 0.63160837
8.382 -7.6409998 0.189 0.062447004 0.41437453 -0.47824746 0.63586676
8.6450005 -7.8309999 0.18799999 -0.0076048397 0.42981932 -0.50800461 0.66548568
8.6949997 -7.7280002 0.18799999 -0.015603651 0.429443 -0.51525486 0.6709339
8.7860003 -7.7839999 0.18799999 -0.034368735 0.43537328 -0.51454675 0.67489958
8.8380003 -7.6830001 0.18799999 -0.030132744 0.4288246 -0.51629627 0.67183357
8.8620005 -7.6550002 0.18799999 -0.032112353 0.42893624 -0.51017922 0.66730827
8.9300003 -7.665 0.18799999 -0.043799967 0.4188472 -0.50490439 0.65747994
8.9899998 -7.6659999 0.18799999 -0.026840093 0.43657392 -0.50572407 0.6686359
9.0150003 -7.664 0.18799999 -0.00132903 0.45687449 -0.51019371 0.68486035
9.1110001 -7.6960001 0.18799999 0.017231002 0.45701355 -0.51346946 0.68761122
9.158 -7.6859999 0.18799999 0.023286898 0.45683545 -0.51221585 0.68673575
9.3509998 -7.6989999 0.18799999 0.06306956 0.46655336 -0.51783955 0.69986254
9.3879995 -7.6789999 0.18799999 0.070530564 0.47081661 -0.52123618 0.70592493
9.4560003 -7.71 0.18799999 0.061604246 0.47090074 -0.52545196 0.70826715
9.5860004 -7.6669998 0.18700001 0.072411947 0.46412796 -0.52170873 0.7020244
9.6960001 -7.7049999 0.18700001 0.011283267 0.46127337 -0.55312318 0.72030944
9.7449999 -7.6939998 0.18700001 -0.0075349994 0.4864977 -0.57465035 0.75296736
10.078 -7.9050002 0.18700001 0.47552764 0.28367293 -0.54236519 0.77508509
9.9370003 -7.7189999 0.18700001 -0.063935444 0.47664738 -0.57633913 0.75063121
9.9820004 -7.7030001 0.18700001 0.39441311 -0.36657664 -0.42940173 0.68871325
10.054 -7.7080002 0.18700001 0.56320453 -0.06140003 -0.46622029 0.73371023
10.076 -7.6760001 0.18700001 0.56636167 -0.033118367 -0.46789825 0.73538506
10.076 -7.6259999 0.18700001 0.56654042 -0.033994067 -0.46402353 0.73310399
10.078 -7.5770001 0.18700001 0.56745112 -0.023551438 -0.46904337 0.73658478
10.04 -7.5240002 0.18700001 0.56631577 -0.072221711 -0.48343828 0.74809235
10.031 -7.4689999 0.18700001 0.56007248 -0.10727435 -0.47993881 0.74533904
10.023 -7.414 0.18700001 0.55491698 -0.12986343 -0.48886466 0.75085688
10.004 -7.3509998 0.18700001 0.55094951 -0.14397241 -0.50450009 0.76078498
9.9910002 -7.2940001 0.18700001 0.54753792 -0.13354722 -0.49575454 0.75060326
10.001 -7.2529998 0.18700001 0.53348196 -0.17233178 -0.49062681 0.74499393
10.058 -7.2459998 0.18700001 0.46403441 -0.29140413 -0.48161507 0.72951859
10.112 -7.2610002 0.18700001 -0.26278749 0.38933417 -0.52716357 0.70607346
10.082 -7.1919999 0.18700001 -0.26585212 0.37263 -0.50758988 0.68350416
10.097 -7.1539998 0.18700001 -0.19758236 0.42495018 -0.49329606 0.68041342
10.145 -7.1409998 0.18700001 -0.10780727 0.46905032 -0.51753086 0.70673102
10.281 -7.1880002 0.18700001 -0.045942284 0.51340312 -0.52769119 0.73766625
10.31 -7.1599998 0.18700001 -0.018256009 0.50624764 -0.52649415 0.73062718
10.562 -7.2849998 0.18700001 0.023669977 0.49232465 -0.50159413 0.70323575
10.537 -7.244 0.18700001 -0.0051642805 0.48708159 -0.52979463 0.71969259
10.525 -7.1869998 0.18700001 -0.012964323 0.48499727 -0.53837925 0.72473627
10.511 -7.1290002 0.18700001 -0.01766143 0.49198905 -0.5371998 0.72866231
10.513 -7.0830002 0.18700001 -0.016577922 0.49302927 -0.52643341 0.72144634
10.547 -7.0580001 0.18700001 -0.014114663 0.49284077 -0.53513873 0.72764325
14.136 -9.3210001 0.18000001 0.49992719 0.15673165 -0.45981023 0.69707781
11.166 -7.3439999 0.186 0.064229749 0.49538925 -0.49664056 0.70440602
11.181 -7.303 0.186 0.06952031 0.49535233 -0.49826077 0.70602465
11.232 -7.2859998 0.186 0.071669497 0.49529228 -0.50194693 0.708803
14.031 -9.0319996 0.18099999 0.50476533 0.14143473 -0.48838148 0.71645534
14.029 -8.9680004 0.18099999 0.50193793 0.15044673 -0.49276087 0.71929771
14.021 -8.9020004 0.18099999 0.50867933 0.093627907 -0.49979028 0.71924347
13.969 -8.8380003 0.18099999 0.49899158 0.13151211 -0.50954437 0.72520584
11.659 -7.3309999 0.185 0.068448231 0.4969683 -0.51382744 0.71810955
13.974 -8.658 0.18099999 0.49247402 0.091435842 -0.51379389 0.71754813
13.875 -8.5369997 0.18099999 0.48463103 0.11032062 -0.5183785 0.71816027
13.867 -8.4720001 0.18099999 0.49559489 0.080178373 -0.5326072 0.73192441
13.851 -8.4029999 0.18099999 0.50527704 0.036656708 -0.55724043 0.75310391
12.062 -7.2950001 0.185 0.064392604 0.46861744 -0.50612205 0.69275409
12.203 -7.3280001 0.184 0.055308722 0.47077155 -0.50175506 0.69024855
12.286 -7.3260002 0.184 0.065310217 0.45536286 -0.49679348 0.67707056
13.761 -8.085 0.182 0.48550853 0.02005671 -0.50132734 0.69817615
13.747 -8.0179996 0.182 0.4770624 0.041748032 -0.49884766 0.69150591
13.737 -7.9549999 0.182 0.48375225 -0.082325906 -0.44738016 0.66403526
12.896 -7.4159999 0.183 0.064066812 0.40897322 -0.47671741 0.63136607
12.746 -7.3039999 0.184 0.10543707 0.39599138 -0.49672237 0.64394039
13.349 -7.592 0.183 0.43571445 -0.038740486 -0.44536924 0.6242609
13.615 -7.6859999 0.182 0.44163924 -0.1037914 -0.41843772 0.61717743
13.546 -7.592 0.182 0.4576475 -0.126902 -0.37938511 0.60784733
13.318 -7.4089999 0.183 0.51039457 -0.1625082 -0.42138982 0.68152839
13.308 -7.349 0.183 0.39689803 -0.5792523 -0.40474609 0.81048173
13.38 -7.3340001 0.183 0.42171112 -0.55321288 -0.39917603 0.80201387
13.418 -7.3270001 0.183 0.37227568 -0.58374959 -0.43163174 0.81587917
13.42 -7.2740002 0.183 -0.30007693 0.15807112 -0.42205629 0.54144633
13.457 -7.2389998 0.183 -0.25927269 0.18593563 -0.43195766 0.53701192
13.448 -7.1799998 0.183 -0.21737798 0.21130818 -0.42579511 0.52269095
13.468 -7.1370001 0.183 -0.19476452 0.24152224 -0.43446186 0.53387576
13.555 -7.1279998 0.183 -0.11811308 0.26641101 -0.43284851 0.52180779
13.656 -7.1539998 0.183 -0.074881926 0.26437432 -0.40809396 0.49197739
13.739 -7.1420002 0.182 -0.0016948916 0.27242932 -0.3981685 0.48245078
13.877 -7.158 0.182 0.054244976 0.27289513 -0.4124667 0.49753699
13.944 -7.1370001 0.182 0.060277317 0.27283406 -0.40390968 0.49113625
14.181 -7.2020001 0.182 0.063831374 0.27867967 -0.42461988 0.51189733
14.305 -7.2080002 0.182 0.044819556 0.27965569 -0.44729936 0.52942687
14.413 -7.2059999 0.18099999 0.025286077 0.28076148 -0.44968557 0.53073865
14.514 -7.2280002 0.18099999 0.044213288 0.28203392 -0.44098318 0.52532285
14.639 -7.2329998 0.18099999 0.05142127 0.28421342 -0.4493089 0.53413475
14.75 -7.23 0.18099999 0.038922198 0.28524023 -0.44949302 0.5337798
15.017 -7.302 0.18099999 0.013657972 0.25930357 -0.46127704 0.52934051
15.031 -7.25 0.18099999 0.01682923 0.26939529 -0.45736542 0.53107452
15.101 -7.2249999 0.18099999 0.0016674511 0.27268463 -0.45699933 0.53217298
15.223 -7.2249999 0.18000001 -0.0010817973 0.27631417 -0.47370869 0.54840732
15.365 -7.2620001 0.18000001 0.014460201 0.27467376 -0.46408474 0.53947145
15.453 -7.2449999 0.18000001 0.031401925 0.2738544 -0.42008832 0.50245047
15.62 -7.263 0.18000001 0.016200008 0.26866865 -0.42075861 0.49948281
15.727 -7.2519999 0.18000001 0.0154605 0.26527232 -0.45313326 0.52529818
15.926 -7.283 0.17900001 -0.025780264 0.26704043 -0.45377484 0.52714968
15.985 -7.25 0.17900001 0.0014364733 0.26798174 -0.46085614 0.53310847
16.115999 -7.2480001 0.17900001 0.02273035 0.26162326 -0.43805361 0.51073909
16.365999 -7.329 0.17900001 0.11592548 0.23253062 -0.37409365 0.45547256
16.216 -7.2010002 0.17900001 0.047080852 0.26017207 -0.4277578 0.50287455
7.8260002 -7.599 0.12 0.081738263 0.37518215 -0.4923152 0.62435329
7.8179998 -7.5430002 0.12 0.074107528 0.3766453 -0.4922888 0.62426102
7.8860002 -7.5619998 0.12 0.078518368 0.37512827 -0.49104664 0.62290704
7.948 -7.573 0.119 0.036878943 0.38195971 -0.48671144 0.61979133
8.3330002 -7.6230001 0.117 0.049338859 0.40398163 -0.46042532 0.61451358
8.3529997 -7.6160002 0.117 0.057449952 0.40289432 -0.46042201 0.61450201
8.3879995 -7.6009998 0.117 0.06980101 0.41376016 -0.45539507 0.61923689
8.5889997 -7.6370001 0.115 0.021690952 0.42113078 -0.48573625 0.64324284
8.7629995 -7.743 0.114 -0.030614153 0.42907742 -0.50818652 0.66580641
8.7810001 -7.6370001 0.114 -0.01490372 0.42136878 -0.50559747 0.65833318
8.8129997 -7.6160002 0.114 -0.033364728 0.42901972 -0.50348598 0.66232109
8.8699999 -7.6170001 0.114 -0.04197368 0.42841649 -0.50386894 0.66271138
8.9350004 -7.6240001 0.113 -0.040373202 0.45354223 -0.50563765 0.68044102
8.9919996 -7.625 0.113 -0.0046217744 0.45692843 -0.50650895 0.68217027
9.0380001 -7.6149998 0.113 0.0011580673 0.45678937 -0.51337844 0.68717921
9.0679998 -7.6160002 0.113 0.0023902683 0.45675814 -0.5142563 0.68781775
9.2869997 -7.6529999 0.111 0.069463313 0.46484718 -0.51722366 0.6988765
9.3299999 -7.6389999 0.111 0.069973558 0.4651179 -0.5077703 0.69214278
9.3800001 -7.631 0.111 0.074924365 0.46897569 -0.52189988 0.70564252
9.5909996 -7.678 0.109 0.071888328 0.46346986 -0.53294677 0.70993274
9.6379995 -7.6669998 0.109 0.058352716 0.46386546 -0.53525317 0.71068424
9.6800003 -7.6500001 0.109 0.017373659 0.48694012 -0.55756199 0.74046463
9.9770002 -7.835 0.106 0.033575945 0.50667793 -0.58672953 0.77595192
9.8979998 -7.6729999 0.107 -0.17385696 0.42660385 -0.60651076 0.76162487
9.9289999 -7.6719999 0.107 -0.21638021 0.40667915 -0.58146977 0.74183249
9.9940004 -7.6729999 0.107 0.50677121 -0.23980778 -0.44222164 0.71406221
10.025 -7.6459999 0.107 0.56173623 -0.072718382 -0.45607108 0.72721136
10.025 -7.5960002 0.107 0.56426227 -0.079387307 -0.46137679 0.73318672
10.02 -7.5430002 0.107 0.56464052 -0.071876258 -0.4520596 0.72687209
10.007 -7.4840002 0.107 0.55728072 -0.11460179 -0.45787892 0.7303071
9.9919996 -7.4239998 0.108 0.55588609 -0.12196702 -0.46276513 0.73350996
9.9809999 -7.3909998 0.108 0.55354589 -0.12495287 -0.48529345 0.74668336
9.9560003 -7.3239999 0.109 0.54254162 -0.12298255 -0.4969677 0.74595779
9.9399996 -7.2649999 0.109 0.53067923 -0.15474193 -0.5028646 0.74728727
9.9519997 -7.2249999 0.109 0.50788641 -0.20907423 -0.50376916 0.74528116
10.007 -7.217 0.109 0.50421494 -0.24282996 -0.48366651 0.73968399
10.06 -7.2080002 0.108 0.45782891 -0.30906838 -0.49361464 0.74080092
10.016 -7.1290002 0.109 0.42063528 -0.36230302 -0.47133327 0.72825313
9.934 -7.0469999 0.11 -0.23952256 0.42553186 -0.50650936 0.7035625
10.058 -7.0869999 0.109 -0.16639498 0.46060428 -0.5016408 0.70106137
10.229 -7.1599998 0.108 -0.061535023 0.48333201 -0.52715242 0.71783429
10.235 -7.1170001 0.108 -0.033232838 0.48991212 -0.52892858 0.72172278
10.288 -7.1059999 0.107 -0.011832289 0.50649297 -0.53665304 0.73801875
10.488 -7.1960001 0.106 -0.020621866 0.48955977 -0.52742076 0.71990746
10.47 -7.1589999 0.106 -0.020363174 0.51742566 -0.53859633 0.74714792
10.445 -7.0939999 0.106 -0.0064208135 0.51022804 -0.55053943 0.75064474
10.45 -7.0500002 0.107 0.01036571 0.51178873 -0.55302811 0.75357497
11.009 -7.2779999 0.102 0.090390131 0.49460474 -0.50488389 0.71253908
11.079 -7.2750001 0.101 0.077755786 0.4950594 -0.50760907 0.71329987
11.089 -7.256 0.102 0.077755786 0.4950594 -0.50760907 0.71329987
11.172 -7.2610002 0.101 0.069193862 0.49518871 -0.50902951 0.71351993
13.915 -8.9890003 0.075000003 0.49676585 0.13217404 -0.49952108 0.71677583
13.911 -8.9250002 0.075999998 0.50394917 0.12891631 -0.49949476 0.72116518
13.883 -8.8450003 0.075999998 0.48288301 0.19893579 -0.51034027 0.73020452
11.614 -7.2919998 0.097999997 0.071028963 0.4987486 -0.52045012 0.72433668
11.644 -7.2600002 0.097999997 0.070034988 0.49654421 -0.52260882 0.7242797
13.688 -8.5100002 0.079000004 0.46369708 0.19262765 -0.57499474 0.76337367
13.783 -8.5089998 0.078000002 0.47833106 0.17969093 -0.52777702 0.7346006
13.784 -8.4499998 0.079000004 0.49776575 0.10973068 -0.53411889 0.73830521
11.995 -7.2459998 0.094999999 0.062990114 0.46660608 -0.5160827 0.69859171
12.16 -7.2940001 0.093999997 0.056476597 0.46894109 -0.51460308 0.69850677
12.227 -7.2820001 0.093999997 0.047456596 0.45531049 -0.5124737 0.68716013
12.308 -7.3039999 0.093000002 0.06706544 0.4551827 -0.5066703 0.68440038
13.697 -8.0740004 0.081 0.50141943 0.031349286 -0.49142772 0.70278406
13.678 -8.0050001 0.081 0.49110585 0.061135605 -0.49564546 0.70041913
13.68 -7.9489999 0.081 0.48469439 -0.095163152 -0.43823391 0.66032845
13.601 -7.8449998 0.082000002 0.47718763 -0.066074967 -0.44182485 0.653669
12.766 -7.3080001 0.090000004 0.096848547 0.39708748 -0.49649173 0.64308798
13.581 -7.6919999 0.082999997 0.44251731 -0.09783271 -0.35715792 0.57702219
13.572 -7.631 0.082999997 0.44002345 -0.095050126 -0.38465026 0.59212416
13.54 -7.5570002 0.083999999 0.47327486 -0.08114323 -0.44452691 0.65435272
13.23 -7.3280001 0.086999997 -0.19795024 0.2246462 -0.44922078 0.53986067
13.307 -7.3169999 0.086000003 0.40090495 -0.54935002 -0.4424307 0.81132925
13.363 -7.2930002 0.086000003 0.38727137 -0.55848408 -0.41979 0.79881614
13.352 -7.2600002 0.086000003 -0.30286887 0.16351525 -0.44391066 0.56171477
13.403 -7.2329998 0.086000003 -0.29709899 0.16796865 -0.43565455 0.55342221
13.39 -7.1719999 0.086000003 -0.2408444 0.2194805 -0.45653203 0.56089145
13.39 -7.1170001 0.086000003 -0.24061254 0.22563745 -0.46070805 0.56662029
13.451 -7.0960002 0.086000003 -0.20012315 0.24126564 -0.45587972 0.55324924
13.597 -7.119 0.085000001 -0.097646929 0.27193287 -0.46267748 0.54548407
13.669 -7.1020002 0.085000001 -0.049912423 0.28082615 -0.46166909 0.54267198
13.894 -7.1370001 0.082999997 0.06442605 0.28267789 -0.42718476 0.51627934
14.007 -7.1389999 0.082000002 0.073852062 0.27377933 -0.42979056 0.51490694
14.21 -7.1869998 0.079999998 0.069497928 0.27863646 -0.45838636 0.54091245
14.32 -7.1859999 0.079999998 0.047299914 0.28556409 -0.461335 0.54462296
14.428 -7.184 0.079000004 0.028959883 0.28666604 -0.4635897 0.54583102
