# .PCD v0.7 - Point Cloud Data file format
VERSION 0.7
FIELDS x y z normal_x normal_y normal_z curvature
SIZE 4 4 4 4 4 4 4
TYPE F F F F F F F
COUNT 1 1 1 1 1 1 1
WIDTH 663
HEIGHT 1
VIEWPOINT 0 0 0 1 0 0 0
POINTS 663
DATA ascii
-10.5 9.8100004 0.426 -0.06728629 0.85221934 -0.37425894 0.93320686
-10.577 9.8190002 0.42699999 -0.13533691 0.84403455 -0.2837781 0.90068883
-10.637 9.8129997 0.428 -0.1679486 0.8401252 -0.37517363 0.93529266
-10.701 9.8109999 0.42899999 0.53660703 -0.51329863 0.15597875 0.75878322
-10.857 9.7980003 0.43000001 0.56295925 -0.45913845 0.23020104 0.76205236
-10.867 9.7449999 0.43000001 0.56077433 -0.48885781 0.25769523 0.78730971
-10.869 9.6850004 0.42899999 0.55060261 -0.51950783 0.20471671 0.78419423
-10.868 9.6230001 0.42899999 0.55067402 -0.51769179 0.21543834 0.78591371
-10.88 9.573 0.428 0.53837085 -0.53299081 0.14134005 0.77064866
-10.87 9.5340004 0.428 0.53648078 -0.51295239 0.21584018 0.77299339
-10.869 9.4729996 0.42699999 0.52731735 -0.49507782 0.20896061 0.75288123
-10.872 9.415 0.426 0.52833927 -0.47600344 0.20535572 0.74019772
-10.879 9.3610001 0.426 0.526371 -0.50542241 0.21247871 0.76004308
-10.884 9.3059998 0.426 0.53473991 -0.5066911 0.28894341 0.79130965
-10.886 9.2489996 0.42500001 0.52932626 -0.53191513 0.29568189 0.80656546
-10.886 9.1899996 0.42399999 0.52381092 -0.5526588 0.30063853 0.81865329
-10.866 9.1450005 0.42399999 0.51498342 -0.57428932 0.30944663 0.83112776
-10.878 9.0959997 0.42300001 0.50261194 -0.60995448 0.29545048 0.84377378
-10.879 9.0389996 0.42300001 0.38651052 0.12091975 -0.3134864 0.51213837
-10.912 9.0089998 0.42300001 0.41481149 0.13542865 -0.35884327 0.56495839
-10.979 9.0059996 0.42399999 0.4298645 0.15360095 -0.36866218 0.58676106
-11.046 9.0030003 0.42399999 0.42920125 0.13690993 -0.36731109 0.58127058
-11.114 9.0010004 0.42500001 0.43109202 0.11207506 -0.3710638 0.57973224
-10.994 8.6490002 0.41999999 0.46147254 0.27072284 -0.36123279 0.64555162
-11.024 8.6160002 0.421 0.46247625 0.31622759 -0.36723375 0.66988415
-11.026 8.5620003 0.41999999 0.46238545 0.30330604 -0.36213061 0.66100937
-11.022 8.5310001 0.41999999 0.45842251 0.28589803 -0.35725501 0.64770365
-11.013 8.4680004 0.419 0.45814064 0.281726 -0.35540295 0.64464998
-11.023 8.4219999 0.419 0.45773461 0.28069976 -0.35138002 0.64170182
-11.023 8.3660002 0.41800001 0.46023813 0.28736585 -0.34362409 0.64224279
-11.02 8.3100004 0.41800001 0.45985436 0.28830746 -0.33985633 0.64038235
-11.046 8.2749996 0.41800001 0.46311927 0.2560789 -0.36244118 0.64141989
-11.037 8.2139997 0.417 0.46500146 0.2416383 -0.3737458 0.64366245
-11.024 8.1780005 0.417 0.46469432 0.23710835 -0.37217098 0.64083731
-11.05 8.1429996 0.417 0.46518281 0.23537871 -0.37708494 0.64342153
-11.046 8.0869999 0.41600001 0.4692803 0.21888094 -0.38218221 0.64358068
-11.039 8.0290003 0.41499999 0.46838933 0.20832416 -0.38608122 0.64175248
-11.053 7.9860001 0.41499999 0.46409443 0.1923191 -0.39366266 0.63823235
-11.034 7.9190001 0.414 0.46611899 0.17408708 -0.40364558 0.64070505
-11.04 7.8709998 0.414 0.44963944 0.14665088 -0.40138647 0.62031698
-11.028 7.836 0.41299999 0.45005393 0.15144227 -0.39877334 0.62008345
-10.974 7.7459998 0.412 0.44756022 0.13421077 -0.40012541 0.615161
-11.034 7.737 0.41299999 0.45247966 0.13855825 -0.40118814 0.62039357
-11.053 7.698 0.41299999 0.44947511 0.1199116 -0.40658039 0.61783028
-11.053 7.6469998 0.412 0.44851673 0.1116736 -0.41797474 0.6231702
-11.082 7.6149998 0.412 0.44404912 0.092857674 -0.42012954 0.61831301
-11.152 7.612 0.41299999 0.43787578 0.08611986 -0.43138593 0.62068158
-10.036 9.7889996 0.34900001 -0.023380503 0.7662859 -0.4527331 0.89034152
-10.114 9.8030005 0.34999999 -0.051145997 0.7679106 -0.45831281 0.89574176
-10.184 9.8079996 0.34999999 -0.054047599 0.77575815 -0.45138443 0.89914948
-10.88 10.345 0.359 0.58091158 -0.44006789 0.23569988 0.76594543
-10.911 10.31 0.359 0.58085853 -0.44458577 0.23556182 0.76846761
-10.893 10.261 0.35800001 0.57453167 -0.39052305 0.31003013 0.76073229
-10.901 10.204 0.35800001 0.57392955 -0.36637712 0.31004161 0.7481665
-10.902 10.141 0.35800001 0.5731172 -0.35343561 0.31058624 0.74151456
-10.9 10.075 0.35699999 0.57264435 -0.34734404 0.30900794 0.7376011
-10.899 10.011 0.35699999 0.56535113 -0.39753962 0.25670776 0.73726422
-10.831 9.8870001 0.35499999 0.57369602 -0.37954021 0.27392977 0.74041569
-10.819 9.8140001 0.35499999 0.56426048 -0.45114094 0.24574062 0.76309007
-10.904 9.7980003 0.35499999 0.56483305 -0.44439438 0.26956069 0.76758432
-10.901 9.7329998 0.35499999 0.55315834 -0.49504316 0.21148263 0.77186579
-10.909 9.6789999 0.35499999 0.55249631 -0.50146925 0.2155102 0.77663904
-10.928 9.6350002 0.354 0.53843123 -0.53438419 0.13555457 0.77061641
-10.906 9.5550003 0.354 0.53760546 -0.50252217 0.21363913 0.76628315
-10.928 9.5139999 0.354 0.52696145 -0.50135636 0.20657727 0.75612217
-10.916 9.4729996 0.35299999 0.52810055 -0.48276722 0.20561701 0.74446809
-10.909 9.4069996 0.35299999 0.54144818 -0.45139343 0.28219974 0.75931472
-10.925 9.3610001 0.35299999 0.53862977 -0.48102435 0.28615203 0.77678144
-10.924 9.3009996 0.352 0.53345215 -0.51322269 0.29117489 0.79545683
-10.923 9.2410002 0.352 0.52604312 -0.54675525 0.28980142 0.8121869
-10.929 9.1870003 0.352 0.52002829 -0.56789458 0.29042372 0.82296997
-10.944 9.1409998 0.35100001 0.41996372 0.1904671 -0.31412095 0.55795985
-10.915 9.0880003 0.35100001 0.40385303 0.15493099 -0.31339011 0.53414816
-10.926 9.04 0.35100001 0.38917655 0.088122472 -0.3516598 0.53187275
-10.99 9.0349998 0.35100001 0.39766133 0.096300647 -0.35393134 0.54099512
-11.071 9.0430002 0.352 0.39578459 0.05529508 -0.35882795 0.53708518
-11.121 9.026 0.352 0.38728493 0.035564005 -0.36498076 0.53335297
-11.078 8.9329996 0.35100001 0.46245679 0.20256835 -0.37110639 0.62659413
-11.041 8.6490002 0.34900001 0.46106535 0.29235873 -0.3475638 0.64719045
-11.043 8.5950003 0.34900001 0.46252084 0.31804672 -0.36900178 0.67174518
-11.046 8.5419998 0.34799999 0.46188164 0.30981159 -0.35989052 0.6624493
-11.047 8.4879999 0.34799999 0.46129113 0.28884241 -0.35426864 0.64940411
-11.045 8.4580002 0.34799999 0.46086156 0.2895619 -0.34922621 0.64668262
-11.034 8.3959999 0.347 0.46018657 0.28959468 -0.34253481 0.64262497
-11.034 8.3400002 0.347 0.45792529 0.28310236 -0.3453835 0.63963449
-11.052 8.3000002 0.347 0.46472913 0.23976825 -0.37179118 0.64163125
-11.051 8.2449999 0.347 0.46470249 0.23901395 -0.37174326 0.6413027
-11.052 8.1920004 0.34599999 0.46483463 0.23678878 -0.37348098 0.64158261
-11.054 8.1400003 0.34599999 0.46933007 0.21883942 -0.3826409 0.64387536
-11.029 8.0950003 0.34599999 0.46865505 0.21413448 -0.38620964 0.64393246
-11.05 8.0570002 0.345 0.4682332 0.20984738 -0.38407627 0.64093125
-11.049 8.0030003 0.345 0.46853149 0.20218739 -0.39056227 0.64260435
-11.047 7.9489999 0.345 0.46691737 0.17757872 -0.4080303 0.64500755
-11.059 7.9050002 0.345 0.45635605 0.16031967 -0.4099288 0.63403857
-11.06 7.8540001 0.34400001 0.45595407 0.15754732 -0.40918341 0.63257122
-11.052 7.796 0.34400001 0.45411813 0.14703017 -0.40450966 0.62567502
-11.06 7.7750001 0.34400001 0.45303214 0.14055498 -0.40364563 0.6228351
-11.058 7.7220001 0.34400001 0.45126688 0.12761378 -0.40993878 0.6228779
-11.056 7.6690001 0.34299999 0.44681442 0.10405932 -0.41904745 0.62134713
-11.065 7.6240001 0.34299999 0.44161791 0.082295224 -0.43107113 0.62259233
-11.137 7.6220002 0.34400001 0.43664509 0.074890837 -0.43419564 0.62031722
-11.21 7.6209998 0.34400001 0.42513889 0.043755338 -0.44930515 0.620107
-10.017 9.7589998 0.25099999 -0.014723115 0.76627624 -0.43406293 0.88079894
-10.065 9.776 0.25099999 -0.0014765784 0.76294804 -0.43945831 0.88046324
-10.155 9.8009996 0.25099999 -0.040309422 0.76855993 -0.4369981 0.88502908
-10.209 9.7910004 0.25099999 -0.040824443 0.76860476 -0.43712369 0.88515365
-10.806 10.301 0.25400001 0.41913727 0.38143373 -0.29520461 0.63899416
-10.847 10.276 0.25400001 0.41909385 0.38033706 -0.29401121 0.63776058
-10.847 10.211 0.25400001 0.41844946 0.41095856 -0.29656464 0.65721947
-10.854 10.154 0.25400001 0.41822493 0.41491985 -0.29557437 0.65911669
-10.84 10.108 0.25400001 0.41779637 0.42314506 -0.30236274 0.66710478
-10.839 10.044 0.25299999 0.41806814 0.4204739 -0.31152523 0.66979641
-10.846 9.9870005 0.25299999 0.41899046 0.40443292 -0.31365922 0.66143864
-10.792 9.8739996 0.25299999 0.42207277 0.38501617 -0.35235119 0.67121845
-10.793 9.8129997 0.25299999 0.42568564 0.314895 -0.3956095 0.66096443
-10.859 9.7489996 0.25299999 0.56030858 -0.41866338 0.30809337 0.76429462
-10.844 9.7060003 0.25299999 0.55863649 -0.43725824 0.3007578 0.77053541
-10.854 9.6529999 0.25299999 0.55822939 -0.44212958 0.31301701 0.77786779
-10.851 9.5889997 0.252 0.54740256 -0.47068524 0.27823645 0.77369869
-10.862 9.5380001 0.252 0.53673714 -0.49070856 0.22809908 0.76217508
-10.857 9.474 0.252 0.55061555 -0.4308919 0.29739553 0.75979561
-10.884 9.4370003 0.252 0.55076593 -0.42688027 0.29785046 0.75781578
-10.86 9.3570004 0.252 0.549757 -0.44398046 0.3006756 0.7679565
-10.862 9.3280001 0.252 0.54906535 -0.45226604 0.30163676 0.77265912
-10.86 9.2679996 0.252 0.53248733 -0.5112558 0.28916138 0.7928049
-10.864 9.2119999 0.252 0.52597511 -0.54105824 0.28597331 0.80695385
-10.865 9.1540003 0.252 0.42731515 0.21437758 -0.32380533 0.57741308
-10.878 9.1070004 0.252 0.41405368 0.1415851 -0.36484227 0.56973386
-10.873 9.0450001 0.25099999 0.39809707 0.10454477 -0.36536166 0.55036354
-10.878 8.9910002 0.25099999 0.40031621 0.10873486 -0.37868798 0.56167686
-10.928 9.0039997 0.25099999 0.40185192 0.11234623 -0.36862564 0.55676883
-10.998 9.0030003 0.252 0.39294308 0.094381794 -0.36173037 0.54236615
-11.052 8.9899998 0.252 0.40663111 0.087219343 -0.36076319 0.55055076
-11.067 8.9440002 0.252 0.44377974 0.15574495 -0.38375548 0.60701334
-10.982 8.6210003 0.25099999 0.44686532 0.29457718 -0.34077603 0.63450187
-10.985 8.5679998 0.25099999 0.45583284 0.32958362 -0.36102727 0.66839331
-10.988 8.5150003 0.25099999 0.45548943 0.30360818 -0.3528806 0.65128583
-10.99 8.4610004 0.25099999 0.45488358 0.30308247 -0.34505293 0.6464051
-10.999 8.4130001 0.25 0.45158368 0.2989527 -0.34139556 0.64019644
-10.998 8.3579998 0.25 0.45091692 0.25851473 -0.36321732 0.63409996
-10.992 8.3260002 0.25 0.45108154 0.25413805 -0.3650696 0.63351125
-11.001 8.2779999 0.25 0.45048347 0.25584924 -0.35995325 0.63084114
-10.994 8.2189999 0.25 0.45350611 0.23340271 -0.36799404 0.62893897
-10.995 8.1660004 0.25 0.45880318 0.21846694 -0.38085666 0.63504326
-10.985 8.1049995 0.25 0.45853788 0.22291796 -0.3771922 0.63421082
-10.973 8.0430002 0.25 0.4585886 0.21570621 -0.38006043 0.63346559
-10.976 7.9920001 0.25 0.46206695 0.21848913 -0.38447621 0.63958216
-10.985 7.973 0.25 0.46138993 0.20521951 -0.38555506 0.6353333
-10.992 7.9250002 0.25 0.46004474 0.18805309 -0.38758579 0.63026017
-11.015 7.8889999 0.25 0.44415134 0.16503006 -0.39684695 0.6180557
-11.032 7.849 0.249 0.44260198 0.16182627 -0.40616131 0.62213445
-11.058 7.8150001 0.249 0.44691446 0.14713365 -0.41062966 0.62449783
-10.083 9.8109999 0.185 0.018902689 0.7593118 -0.42969242 0.87266678
-10.074 9.7720003 0.185 0.018902689 0.7593118 -0.42969242 0.87266678
-10.2 9.8310003 0.185 -0.029841192 0.76800346 -0.4213286 0.87649167
-10.275 9.842 0.184 -0.029841192 0.76800346 -0.4213286 0.87649167
-10.93 10.336 0.183 0.41899914 0.40264255 -0.30645409 0.65695924
-10.927 10.268 0.183 0.57406241 -0.36811021 0.3044827 0.74683499
-10.931 10.208 0.183 0.57244152 -0.34536389 0.29462302 0.73059446
-10.924 10.169 0.183 0.57307518 -0.35227963 0.29869497 0.73602635
-10.918 10.1 0.183 0.57414341 -0.36923558 0.29866186 0.74510032
-10.937 10.054 0.183 0.57448262 -0.37874097 0.30113316 0.75110328
-10.935 9.9890003 0.184 0.57433158 -0.37771916 0.29110554 0.7465058
-10.882 9.8780003 0.184 0.57415569 -0.38593122 0.2809853 0.74669296
-10.947 9.8120003 0.184 0.56521463 -0.43122408 0.25087634 0.75389701
-10.931 9.7670002 0.184 0.56451333 -0.44531116 0.24378385 0.7592153
-10.933 9.7069998 0.184 0.551036 -0.44613981 0.249649 0.75166881
-10.942 9.6549997 0.184 0.53866303 -0.49036026 0.18380231 0.75126183
-10.938 9.5900002 0.184 0.55140543 -0.44452938 0.2719737 0.75869894
-10.942 9.533 0.184 0.55002648 -0.44419581 0.28086951 0.76074088
-10.952 9.4820004 0.184 0.55054504 -0.43585491 0.27978772 0.75587732
-10.949 9.4189997 0.184 0.54099303 -0.44263378 0.27096012 0.74967825
-10.941 9.382 0.184 0.53976679 -0.46071768 0.27231067 0.76010662
-10.94 9.3219995 0.184 0.53445858 -0.50207853 0.2688365 0.78102618
-10.946 9.2679996 0.184 0.43710467 0.2490809 -0.33474222 0.60427988
-10.949 9.2119999 0.184 0.4303025 0.22260435 -0.34904784 0.59711581
-10.958 9.1610003 0.184 0.42051017 0.15872043 -0.37684044 0.58654046
-10.957 9.1020002 0.184 0.4106133 0.13227789 -0.38137954 0.57580471
-10.967 9.052 0.184 0.39204684 0.091970786 -0.37440979 0.54985636
-11.005 9.0539999 0.184 0.39293998 0.078296646 -0.37557903 0.54917377
-11.081 9.059 0.184 0.36663246 0.02402547 -0.3999674 0.54311186
-11.147 9.0539999 0.184 -0.3403247 0.70646608 -0.36414105 0.86458886
-11.186 9.0279999 0.184 -0.26279882 0.73825371 -0.3854892 0.87331766
-10.009 9.7589998 0.096000001 0.03554216 0.75511038 -0.4334133 0.87137938
-10.093 9.7799997 0.094999999 0.031621613 0.75614572 -0.43278807 0.8718152
-10.144 9.7670002 0.094999999 0.021583512 0.75866872 -0.43050444 0.87256986
-10.189 9.7799997 0.094999999 0.016861089 0.75977945 -0.42934492 0.87286097
-10.861 10.297 0.088 0.41936192 0.39222151 -0.31145495 0.65322763
-10.867 10.238 0.088 0.4190369 0.40152031 -0.30179948 0.65413558
-10.868 10.175 0.089000002 0.41840768 0.41553611 -0.31233618 0.66729987
-10.875 10.117 0.089000002 0.41872057 0.41015613 -0.31314138 0.66453928
-10.872 10.05 0.089000002 0.41899499 0.39880803 -0.32501858 0.66350716
-10.861 10.009 0.090000004 0.41897249 0.39563188 -0.29270506 0.64632714
-10.871 9.9540005 0.090000004 0.41930887 0.39140743 -0.3023527 0.64841104
-10.843 9.8660002 0.090000004 0.42466447 0.33664817 -0.36288062 0.65219188
-10.873 9.7700005 0.090999998 0.42935196 0.32474482 -0.36458907 0.65017498
-10.873 9.7080002 0.090999998 0.5588429 -0.40987501 0.28821516 0.75058037
-10.881 9.6529999 0.090999998 0.55916756 -0.41476405 0.3020719 0.75891042
-10.865 9.6079998 0.092 0.43443391 0.3282972 -0.36368734 0.65481323
-10.874 9.5559998 0.092 0.54985148 -0.44122034 0.26398027 0.75279319
-10.868 9.4899998 0.092 0.55054176 -0.43265828 0.27011329 0.75050026
-10.882 9.4429998 0.092 0.55094069 -0.4240849 0.27251679 0.74675906
-10.879 9.3800001 0.093000002 0.55039936 -0.43686801 0.27342045 0.75402379
-10.89 9.3299999 0.093000002 0.54784685 -0.46638089 0.2733928 0.76966935
-10.883 9.2639999 0.093000002 0.42951226 0.24180821 -0.36990044 0.6162616
-10.883 9.2349997 0.093000002 0.43339023 0.20347321 -0.39273044 0.61924601
-10.882 9.1750002 0.093999997 0.42478159 0.17229682 -0.3928403 0.60369623
-10.888 9.1219997 0.093999997 0.41945809 0.15581158 -0.38711664 0.59167695
-10.887 9.0629997 0.093999997 0.40384245 0.11665811 -0.38958138 0.57312429
-10.895 9.0120001 0.094999999 0.37887925 0.051673412 -0.4004449 0.55369282
-10.93 8.9829998 0.093999997 0.35336369 0.011991173 -0.40015587 0.53397977
-11.001 8.9840002 0.093999997 0.33532184 -0.03034243 -0.42250755 0.5402537
-11.076 8.9879999 0.093999997 -0.35563037 0.69183099 -0.36544925 0.85945112
-11.126 8.9989996 0.093000002 -0.32309249 0.71783632 -0.36297497 0.86684984
-10.061 9.757 0.0089999996 0.038290307 0.75470161 -0.4256914 0.86732566
-10.127 9.7600002 0.0080000004 0.030986741 0.75651169 -0.42792672 0.86970764
-10.197 9.7659998 0.0080000004 0.019525327 0.75917804 -0.42953694 0.87248755
-10.86 10.301 -0.0040000002 0.41930529 0.3833831 -0.2989985 0.64202774
-10.855 10.232 -0.0040000002 0.41907895 0.40185454 -0.30581149 0.65622777
-10.868 10.18 -0.003 0.41812444 0.41207114 -0.28829336 0.6540212
-10.865 10.113 -0.0020000001 0.41843298 0.40229914 -0.28504363 0.64666885
-10.864 10.049 -0.0020000001 0.41898307 0.39633727 -0.29351309 0.6471321
-10.879 10 -0.0020000001 0.41918558 0.38799605 -0.29529515 0.64300597
-10.846 9.9379997 -0.001 0.42453769 0.3429389 -0.34273663 0.64444375
-10.827 9.8579998 0 0.42716852 0.32437605 -0.33355889 0.63162827
-10.869 9.7729998 0.001 0.42388013 0.3136203 -0.35069793 0.63326228
-10.873 9.7150002 0.001 0.55933702 -0.41578388 0.32023066 0.76699531
-10.88 9.6590004 0.0020000001 0.43417764 0.31964046 -0.35249823 0.64415467
-10.878 9.5970001 0.0020000001 0.54990798 -0.44043586 0.26412618 0.75242621
-10.877 9.5349998 0.003 0.55039054 -0.43387952 0.26709062 0.7500124
-10.877 9.5050001 0.003 0.55064315 -0.42777264 0.26651093 0.74647528
-10.878 9.4460001 0.0040000002 0.55079573 -0.42421439 0.26736549 0.74486113
-10.877 9.3859997 0.0040000002 0.55074787 -0.42704672 0.26894373 0.74700928
-10.885 9.3330002 0.0049999999 0.43721721 0.29071471 -0.36921176 0.64186543
-10.883 9.2720003 0.0049999999 0.43098462 0.21510468 -0.39934909 0.62569755
-10.89 9.2200003 0.0060000001 0.42677623 0.19532397 -0.39274561 0.61199552
-10.892 9.1619997 0.0060000001 0.42266178 0.16552469 -0.39125615 0.59926856
-10.877 9.1210003 0.0070000002 0.41812989 0.14515458 -0.39407137 0.59261686
-10.882 9.0679998 0.0070000002 0.40029895 0.090479344 -0.41213417 0.58161873
-10.886 9.0129995 0.0070000002 0.37510669 0.043104798 -0.41404101 0.56035078
-10.928 8.9899998 0.0070000002 0.35489818 0.011872649 -0.40902576 0.54166019
-10.992 8.9849997 0.0070000002 0.33722293 -0.026522458 -0.41867557 0.53824902
-11.067 8.9879999 0.0060000001 -0.37897515 0.67043293 -0.35701719 0.84886026
-11.142 8.9910002 0.0049999999 -0.24989548 0.76025772 -0.35876775 0.87701416
-10.096 9.8129997 -0.090000004 0.011044092 0.76135528 -0.41734025 0.86830682
-10.133 9.7880001 -0.090000004 0.011044092 0.76135528 -0.41734025 0.86830682
-10.2 9.7910004 -0.090999998 0.0071415007 0.76214695 -0.41743135 0.86900395
-10.873 10.308 -0.109 0.41916555 0.37834871 -0.2948451 0.63700956
-10.878 10.248 -0.108 0.41806063 0.39681721 -0.27593648 0.63904577
-10.865 10.203 -0.107 0.41603854 0.43083903 -0.27669695 0.65975112
-10.867 10.142 -0.107 0.41797677 0.41059458 -0.28362879 0.65095145
-10.87 10.08 -0.106 0.42326015 0.35719395 -0.32140428 0.64034158
-10.881 10.027 -0.105 0.42252195 0.35150364 -0.31066221 0.63134032
-10.884 9.967 -0.104 0.42364582 0.34282875 -0.32374957 0.63389361
-10.891 9.9099998 -0.104 0.42330855 0.32130253 -0.32529801 0.62309247
-10.856 9.7849998 -0.101 0.42362568 0.29100829 -0.31484318 0.60271949
-10.873 9.7390003 -0.101 0.4221943 0.26765311 -0.33696985 0.60285562
-10.875 9.6789999 -0.1 0.42418551 0.2760559 -0.36153874 0.62197304
-10.874 9.6169996 -0.098999999 0.43627849 0.31090471 -0.34117132 0.6351366
-10.883 9.5640001 -0.098999999 0.54709363 -0.45560384 0.27646199 0.76375228
-10.889 9.5089998 -0.097999997 0.55017048 -0.43588671 0.26394069 0.74989969
-10.89 9.4499998 -0.097000003 0.55069619 -0.42042249 0.26198715 0.74071491
-10.875 9.4069996 -0.096000001 0.44165349 0.32689309 -0.38145891 0.66890043
-10.883 9.3540001 -0.096000001 0.44095469 0.27244338 -0.40906221 0.66030169
-10.879 9.2910004 -0.094999999 0.43766716 0.24337584 -0.41079965 0.64771962
-10.884 9.2360001 -0.093999997 0.42865846 0.19372022 -0.40043613 0.6177578
-10.887 9.1800003 -0.093000002 0.42311013 0.17553692 -0.42008355 0.62153482
-10.893 9.1260004 -0.093000002 0.41940781 0.13907889 -0.42093509 0.61027223
-10.895 9.0699997 -0.092 0.40087348 0.092497125 -0.42015177 0.58803296
-10.888 9.0349998 -0.092 0.39763159 0.085600302 -0.42048252 0.58501613
-10.92 9.0039997 -0.092 0.36815578 0.032260776 -0.41902956 0.55871749
-10.976 8.9919996 -0.092 0.33780691 -0.026074797 -0.43040699 0.54776233
-11.059 9.0030003 -0.093999997 -0.40281999 0.64634323 -0.35730037 0.84124142
-11.324 9.1599998 -0.1 -0.1949079 0.76749223 -0.36318815 0.87117106
-9.9919996 9.7229996 -0.15899999 0.0083582774 0.76190078 -0.40898573 0.8647728
-10.135 9.8000002 -0.163 0.0047422647 0.76253486 -0.42164066 0.87135684
-10.2 9.8009996 -0.164 -0.0045717731 0.76421034 -0.42321202 0.87358272
-10.253 9.8210001 -0.16500001 -0.007186465 0.76932943 -0.42176786 0.87738675
-10.927 10.333 -0.18700001 0.41792333 0.38389611 -0.27166015 0.6291545
-10.916 10.258 -0.186 0.41523457 0.41786832 -0.25574473 0.64221418
-10.923 10.2 -0.185 0.41368389 0.4038685 -0.23771349 0.62510145
-10.927 10.14 -0.184 0.41559047 0.40550554 -0.25269011 0.63324755
-10.925 10.075 -0.183 0.41948316 0.34992215 -0.28485054 0.61607748
-10.926 10.044 -0.182 0.42052871 0.34729218 -0.29219854 0.61873764
-10.921 9.9759998 -0.18099999 0.42043611 0.33353171 -0.29186785 0.61089832
-10.888 9.8839998 -0.17900001 0.41867349 0.30935922 -0.28638315 0.59414303
-10.949 9.8140001 -0.17900001 0.4232389 0.28182876 -0.31398427 0.5976159
-10.93 9.7360001 -0.177 0.42119718 0.26494724 -0.31487468 0.58885497
-10.95 9.6920004 -0.177 0.53979963 -0.47630155 0.31465137 0.78565407
-10.928 9.6420002 -0.175 0.54684532 -0.47131953 0.306021 0.78411144
-10.934 9.5869999 -0.17399999 0.54232287 -0.4626292 0.29540524 0.77162439
-10.929 9.5220003 -0.17299999 0.54384118 -0.44776475 0.28293392 0.75914961
-10.953 9.4820004 -0.17299999 0.44652665 0.31079292 -0.3605344 0.6526587
-10.95 9.4189997 -0.17200001 0.44708401 0.32228696 -0.36682907 0.66205478
-10.941 9.3529997 -0.171 0.44516411 0.25457332 -0.40028793 0.65054524
-10.966 9.3140001 -0.17 0.4440318 0.20987523 -0.39309296 0.62907386
-10.935 9.2580004 -0.169 0.43810233 0.20107472 -0.39822069 0.62525547
-10.947 9.21 -0.168 0.42859441 0.14685518 -0.40156606 0.60540473
-10.951 9.1549997 -0.167 0.42434931 0.11334771 -0.39695871 0.59202725
-10.95 9.0959997 -0.16599999 0.41307461 0.086927563 -0.39564216 0.57854974
-10.95 9.0380001 -0.16500001 0.39852771 0.058681935 -0.40186426 0.56900156
-11.007 9.0270004 -0.16599999 0.36488795 0.0062678158 -0.38624501 0.5313828
-11.061 9.0129995 -0.167 0.32468671 -0.041013539 -0.39080024 0.50973362
-11.121 9.033 -0.169 -0.378813 0.67330563 -0.3839207 0.86269045
-11.221 9.0559998 -0.171 -0.27052641 0.75051069 -0.39504129 0.8902294
-9.9770002 9.7259998 -0.242 0.0040476769 0.73976892 -0.42203945 0.85169935
-10.094 9.7779999 -0.245 -0.010896638 0.76545453 -0.409511 0.86818123
-10.167 9.7880001 -0.24699999 -0.017913617 0.76653421 -0.41050956 0.86972046
-10.207 9.7650003 -0.248 -0.0164271 0.7708028 -0.40962544 0.8730405
-10.815 10.251 -0.273 0.41277179 0.3620778 -0.3104077 0.6307407
-10.758 10.133 -0.26899999 0.39303538 0.35420686 -0.22085576 0.57333809
-10.777 10.087 -0.26800001 0.3907499 0.33668429 -0.21126856 0.55738336
-10.705 9.9560003 -0.264 0.30750349 0.2074106 -0.081879765 0.37984452
-10.726 9.9130001 -0.26300001 0.29068023 0.15172276 -0.073720396 0.3360796
-10.738 9.8620005 -0.26199999 0.31061202 0.16747253 -0.090491861 0.36430159
-10.782 9.8400002 -0.26300001 0.34876806 0.16777273 -0.15636404 0.41741651
-10.782 9.8100004 -0.26199999 0.35195091 0.14133567 -0.19047931 0.4244144
-10.891 9.7849998 -0.264 0.40353739 0.22302744 -0.27676618 0.53775758
-10.895 9.7259998 -0.26300001 0.40417027 0.21341155 -0.293109 0.54296499
-10.899 9.6680002 -0.26199999 0.41097504 0.23725384 -0.30551553 0.56438428
-10.905 9.6129999 -0.26100001 0.43006986 0.28731549 -0.28965157 0.59279704
-10.905 9.552 -0.25999999 0.5527975 -0.45100886 0.33099794 0.78648186
-10.893 9.5109997 -0.25799999 0.43947923 0.28945971 -0.35365006 0.63403255
-10.897 9.4549999 -0.257 0.44144452 0.31204653 -0.36252227 0.6508984
-10.898 9.3950005 -0.25600001 0.44397032 0.28849176 -0.39581668 0.66106582
-10.907 9.3430004 -0.255 0.44589913 0.24794206 -0.40304148 0.65018749
-10.915 9.29 -0.25400001 0.43953288 0.20947951 -0.41027731 0.63670892
-10.916 9.2329998 -0.25299999 0.43095717 0.17619464 -0.42382035 0.62959695
-10.916 9.1739998 -0.252 0.42496118 0.14275269 -0.43286309 0.62316996
-10.915 9.1440001 -0.25099999 0.41865274 0.12417476 -0.43500963 0.61637884
-10.907 9.0790005 -0.25 0.40781286 0.089082867 -0.42130929 0.59308398
-10.908 9.0220003 -0.249 0.37839741 0.049522668 -0.42545116 0.57152933
-10.95 8.9989996 -0.249 0.37817386 0.026084125 -0.41995665 0.56573796
-11.016 8.9949999 -0.25099999 0.33165893 -0.03394559 -0.41909355 0.53552717
-11.082 8.9919996 -0.252 0.32340536 -0.039316028 -0.40110877 0.51674461
-11.176 9.0100002 -0.255 -0.31012574 0.72697359 -0.37372214 0.87426358
-10.116 9.8039999 -0.33899999 -0.020166449 0.76685953 -0.4103466 0.86997962
-10.169 9.7950001 -0.34 -0.023316778 0.76729494 -0.41123402 0.87086082
-10.225 9.7860003 -0.34200001 -0.02701351 0.77209282 -0.41075054 0.87497032
-10.302 9.7980003 -0.34400001 -0.024898458 0.77216846 -0.41275904 0.87591904
-10.376 9.8070002 -0.34599999 -0.023078378 0.77842402 -0.4316127 0.89037418
-10.437 9.8330002 -0.34900001 -0.038573846 0.77947319 -0.43675914 0.89432931
-10.503 9.8330002 -0.35100001 -0.029738359 0.80202639 -0.45365459 0.92191821
-10.567 9.8310003 -0.352 -0.10066354 0.8045181 -0.43960106 0.92229694
-10.61 9.8079996 -0.35299999 -0.19858527 0.77135563 -0.51649392 0.94931108
-10.692 9.8219995 -0.35600001 -0.25656107 0.75008249 -0.55404222 0.96716601
-10.751 9.8140001 -0.35699999 0.24973509 -0.00885427 -0.19558652 0.31733277
-10.809 9.8039999 -0.359 0.28227574 0.011872351 -0.22274323 0.35977089
-10.91 9.8030005 -0.361 0.37729099 0.13820906 -0.28044814 0.49000144
-10.911 9.7419996 -0.36000001 0.39330634 0.17016596 -0.30411008 0.52548003
-10.92 9.6890001 -0.359 0.41161811 0.2011216 -0.33814207 0.56940269
-10.918 9.6260004 -0.35699999 0.53647172 -0.5269419 0.32167327 0.81788957
-10.925 9.5719995 -0.35600001 0.44003958 0.25656417 -0.35337263 0.61994535
-10.929 9.5150003 -0.35499999 0.44472617 0.28967023 -0.36312518 0.64307863
-10.911 9.4689999 -0.35299999 0.44715959 0.26316047 -0.36946505 0.63695335
-10.918 9.415 -0.352 0.44931492 0.29357055 -0.38188669 0.65871465
-10.928 9.3640003 -0.35100001 0.45256931 0.25674433 -0.38732541 0.64865828
-10.927 9.3039999 -0.34900001 0.44327593 0.19978037 -0.40473518 0.63262653
-10.935 9.2510004 -0.34799999 0.43814135 0.16177601 -0.41447321 0.62444162
-10.934 9.1920004 -0.347 0.43457916 0.15034238 -0.42249784 0.6244728
-10.933 9.132 -0.345 0.42750043 0.12972668 -0.43013263 0.620161
-10.927 9.099 -0.34400001 0.42205647 0.11476578 -0.42942652 0.61295187
-10.932 9.0450001 -0.34299999 0.40371975 0.069822833 -0.42430386 0.58982933
-10.967 9.0159998 -0.34299999 0.39546829 0.054163247 -0.41891181 0.57863283
-11.035 9.0139999 -0.345 0.38308212 0.032880753 -0.40717638 0.56002289
-11.104 9.0120001 -0.347 0.32556865 -0.035552919 -0.35797754 0.48518747
-11.229 9.0550003 -0.352 -0.32976985 0.70656383 -0.46564841 0.90818995
-10.07 9.7980003 -0.421 -0.024180591 0.76717412 -0.42274997 0.8762753
-10.13 9.7939997 -0.42300001 -0.024441786 0.76719904 -0.42550081 0.87763476
-10.192 9.7930002 -0.42500001 -0.024219021 0.77148646 -0.4262467 0.88173926
-10.267 9.8030005 -0.428 -0.024642885 0.77178216 -0.43020299 0.88392848
-10.352 9.8219995 -0.43099999 -0.039800394 0.77985144 -0.43146729 0.8921414
-10.417 9.823 -0.433 -0.037403937 0.77887714 -0.44425654 0.89744776
-10.477 9.8170004 -0.435 -0.040452488 0.80579364 -0.42514378 0.91196871
-10.522 9.8280001 -0.43700001 -0.065423056 0.80687463 -0.42264521 0.91321182
-10.586 9.8260002 -0.43900001 -0.13602293 0.79813004 -0.46265596 0.9325043
-10.665 9.8380003 -0.442 -0.17843458 0.78029728 -0.48110148 0.93389583
-10.72 9.8260002 -0.44299999 -0.26510307 0.75127804 -0.49355179 0.93717217
-10.795 9.8330002 -0.44600001 -0.33825615 0.7331838 -0.50124681 0.95038098
-10.827 9.8000002 -0.44600001 0.23828876 -0.042886436 -0.25373653 0.35071784
-10.889 9.7939997 -0.44800001 0.31745833 0.025618792 -0.29214755 0.43218783
-10.885 9.7589998 -0.447 0.31551981 0.013785094 -0.35240051 0.47321126
-10.889 9.7010002 -0.44499999 0.36392301 0.099717006 -0.33054808 0.50164276
-10.894 9.6440001 -0.44400001 0.38274762 0.12738355 -0.37835026 0.55305624
-10.893 9.5819998 -0.442 0.41135073 0.1658611 -0.38328096 0.58619416
-10.903 9.5310001 -0.44100001 0.44475511 0.25329238 -0.37068939 0.63196105
-10.908 9.474 -0.43900001 0.44857097 0.27652502 -0.38299793 0.65143645
-10.913 9.4189997 -0.43799999 0.45494065 0.30171326 -0.3781752 0.66409212
-10.901 9.3780003 -0.43599999 0.45001975 0.27361512 -0.37578866 0.64699316
-10.901 9.3190002 -0.43399999 0.44544336 0.23085785 -0.39660704 0.63954067
-10.905 9.2629995 -0.433 0.44530472 0.19061977 -0.4018012 0.62934601
-10.911 9.2089996 -0.43099999 0.43821397 0.1615016 -0.39831439 0.61381477
-10.911 9.151 -0.43000001 0.42824697 0.12949778 -0.39837208 0.5990538
-10.912 9.0930004 -0.428 0.4161261 0.098179758 -0.40654856 0.58998466
-10.916 9.0389996 -0.42699999 0.39770964 0.059641838 -0.39568219 0.56417596
-10.924 9.0159998 -0.426 0.39108896 0.04594183 -0.38590944 0.55135047
-10.987 9.0109997 -0.428 0.39108896 0.04594183 -0.38590944 0.55135047
-11.067 9.0179996 -0.43099999 0.34925538 -0.013680309 -0.39681438 0.52879876
-11.128 9.0100002 -0.433 0.33457112 -0.025652587 -0.35022959 0.48503265
-10.053 9.7659998 -0.5 -0.034794968 0.76863682 -0.41214868 0.87285727
-10.087 9.7679996 -0.50199997 -0.032096345 0.76832235 -0.41315189 0.87295121
-10.151 9.7679996 -0.50400001 -0.038589872 0.76911449 -0.41350082 0.87407619
-10.223 9.776 -0.50700003 -0.040563483 0.77335763 -0.416904 0.87950915
-10.308 9.7950001 -0.51099998 -0.043477006 0.78065121 -0.41429716 0.88484389
-10.37 9.7930002 -0.51300001 -0.041988689 0.78053313 -0.41580135 0.88537323
-10.445 9.8009996 -0.51599997 -0.041555006 0.80707359 -0.40217176 0.90268308
-10.509 9.7989998 -0.51800001 -0.073287882 0.8078419 -0.40479127 0.90655148
-10.552 9.809 -0.51999998 -0.11257374 0.80599898 -0.40752819 0.91015738
-10.607 9.7969999 -0.52200001 -0.14173859 0.80003768 -0.39199957 0.90211624
-10.674 9.7969999 -0.52399999 -0.2060087 0.78182936 -0.40415668 0.90390229
-10.746 9.8009996 -0.52700001 -0.26060706 0.77677655 -0.38566175 0.90555662
-10.798 9.7860003 -0.528 -0.28872147 0.76539546 -0.39659476 0.90910822
-10.868 9.7259998 -0.52899998 -0.40060291 0.70872819 -0.36348021 0.89156955
-10.862 9.691 -0.528 0.28794366 -0.021079957 -0.38021272 0.47740719
-10.861 9.6289997 -0.52499998 0.33665693 0.011161745 -0.43389603 0.54929799
-10.869 9.5749998 -0.52399999 0.39976346 0.12629122 -0.42277446 0.59539783
-10.867 9.5129995 -0.52200001 0.41952467 0.17535213 -0.43854058 0.63171762
-10.86 9.4460001 -0.51899999 0.43691725 0.26276392 -0.37480158 0.63278574
-10.888 9.4110003 -0.51899999 0.45021641 0.30323157 -0.35670513 0.64952505
-10.884 9.3479996 -0.51700002 0.44856152 0.26653314 -0.35713005 0.63228887
-10.895 9.2980003 -0.51599997 0.450607 0.2156828 -0.3733272 0.62364972
-10.87 9.2469997 -0.51300001 0.43758741 0.20916067 -0.37857863 0.61526638
-10.89 9.2049999 -0.51300001 0.4432357 0.17892915 -0.37178019 0.60555267
-10.874 9.1339998 -0.50999999 0.42061225 0.14429176 -0.36604726 0.57595605
-10.887 9.0869999 -0.509 0.41998062 0.10698763 -0.36740655 0.56817043
-10.887 9.0279999 -0.50700003 0.40324035 0.072847813 -0.3681792 0.55087703
-10.904 8.9849997 -0.50599998 0.35950023 -0.0007917285 -0.38224238 0.52473831
-10.955 8.9700003 -0.50800002 0.35479164 -0.0059044361 -0.36826226 0.51139909
-11.027 8.9989996 -0.51099998 0.33934733 -0.021007776 -0.34263706 0.48269877
-11.08 8.9849997 -0.51300001 0.34129599 -0.023082912 -0.34260002 0.48413897
-10.04 9.7700005 -0.58899999 -0.042216033 0.76940817 -0.40726322 0.87157011
-10.102 9.7690001 -0.59200001 -0.042761192 0.76946694 -0.40921035 0.87255996
-10.156 9.7589998 -0.59299999 -0.035539538 0.77296674 -0.40759984 0.87457317
-10.22 9.79 -0.597 -0.045493316 0.77378631 -0.41350377 0.87852162
-10.29 9.7959995 -0.60000002 -0.043079101 0.78066397 -0.411376 0.88347167
-10.357 9.7980003 -0.60299999 -0.044781979 0.78074425 -0.41320875 0.88448203
-10.421 9.7959995 -0.60600001 -0.0472432 0.80754197 -0.39464739 0.90005696
-10.488 9.7980003 -0.60900003 -0.061732374 0.80804908 -0.39189687 0.90018743
-10.539 9.7840004 -0.61000001 -0.10395459 0.80395204 -0.38547269 0.89762723
-10.617 9.7939997 -0.61400002 -0.1505143 0.79428262 -0.41783208 0.91001266
-10.68 9.79 -0.616 -0.19921145 0.7833755 -0.41124219 0.90690821
-10.726 9.802 -0.61900002 -0.2083711 0.78099358 -0.41100806 0.90680599
-10.789 9.7980003 -0.62099999 -0.24243122 0.78499854 -0.3796795 0.90507025
-10.863 9.7410002 -0.62199998 -0.32608205 0.7540229 -0.32440099 0.88324177
-10.875 9.6899996 -0.62099999 -0.37660146 0.7117455 -0.30915231 0.86254591
-10.864 9.6190004 -0.61799997 -0.44493628 0.62209892 -0.32577595 0.83132744
-11.06 9.7320004 -0.63 0.47389588 -0.63197821 0.23392603 0.82382953
-10.086 9.7980003 -0.667 -0.041504972 0.76913595 -0.42433497 0.87940484
-10.141 9.79 -0.66900003 -0.044921353 0.76945925 -0.42433834 0.87985706
-10.199 9.7840004 -0.67199999 -0.039526504 0.77309799 -0.42441893 0.8828218
-10.279 9.7989998 -0.676 -0.03694943 0.77997112 -0.42388895 0.88848299
-10.346 9.8009996 -0.67900002 -0.044125512 0.78048909 -0.42267394 0.88868642
-10.399 9.8199997 -0.68199998 -0.047464497 0.78071767 -0.42132276 0.8884176
-10.473 9.8269997 -0.68599999 -0.050997488 0.80749512 -0.40355891 0.90416199
-10.522 9.8120003 -0.68699998 -0.081975311 0.80480719 -0.40071857 0.90277904
-10.588 9.8109999 -0.69 -0.12548423 0.79764032 -0.41010815 0.90562969
-10.656 9.8109999 -0.69300002 -0.1661168 0.79236948 -0.39913571 0.902637
-10.728 9.816 -0.69700003 -0.17886549 0.78834027 -0.39741024 0.90078199
-10.797 9.8170004 -0.69999999 -0.21394056 0.79420984 -0.37154853 0.90254533
-10.839 9.8240004 -0.70200002 -0.2322983 0.78846812 -0.37386683 0.90300661
-10.923 9.7749996 -0.704 -0.28765106 0.78037584 -0.34297705 0.89964592
-10.942 9.7299995 -0.70300001 -0.33905643 0.7459113 -0.31562591 0.87804478
-10.942 9.6700001 -0.70099998 0.32654008 -0.0090336204 -0.4338896 0.54311162
-10.926 9.5939999 -0.69700003 0.39279401 0.065354809 -0.44597462 0.59787267
-11.111 9.6949997 -0.70999998 -0.36491969 0.70961332 -0.2372486 0.83246881
-10.039 9.7690001 -0.76200002 -0.043626234 0.76888049 -0.43568137 0.88481563
-10.093 9.7589998 -0.764 -0.036203384 0.76813161 -0.43560255 0.88379097
-10.155 9.7580004 -0.76700002 -0.03491595 0.77215302 -0.43673623 0.8877939
-10.229 9.7679996 -0.77100003 -0.031294618 0.77900207 -0.43513936 0.89284372
-10.288 9.7629995 -0.77399999 -0.036829732 0.77950239 -0.43408534 0.89297843
-10.37 9.7790003 -0.77899998 -0.045278698 0.78007448 -0.43374646 0.89370149
-10.437 9.7799997 -0.78200001 -0.047443457 0.8036691 -0.41816825 0.9071933
-10.483 9.7919998 -0.78500003 -0.051888056 0.80397636 -0.41606632 0.90674227
-10.548 9.7919998 -0.78799999 -0.095003009 0.80394626 -0.41274118 0.9086861
-10.611 9.7889996 -0.79100001 -0.14501178 0.79548514 -0.40749744 0.9054718
-10.679 9.7889996 -0.79500002 -0.17390597 0.79067171 -0.40908501 0.90705878
-10.745 9.7880001 -0.79799998 -0.18489477 0.78641224 -0.41873732 0.90992922
-10.808 9.7840004 -0.801 -0.20480329 0.79660249 -0.39892906 0.91414678
-10.886 9.7620001 -0.80400002 -0.23412597 0.79474986 -0.38878238 0.91520166
-10.893 9.7060003 -0.80199999 -0.26283011 0.75981569 -0.39012721 0.89364356
-10.886 9.6389999 -0.79799998 -0.32317773 0.70654488 -0.3768245 0.86350805
-11.039 9.7130003 -0.81 -0.29172748 0.77914667 -0.35707805 0.90536135
-10.072 9.7860003 -0.833 -0.032739837 0.76733279 -0.4423793 0.88632441
-10.126 9.8079996 -0.83700001 -0.034872383 0.76752889 -0.443088 0.88692933
-10.19 9.8079996 -0.84100002 -0.0319001 0.77148932 -0.4425714 0.88999039
-10.261 9.8140001 -0.84500003 -0.032049265 0.77862406 -0.44198674 0.89589888
-10.335 9.823 -0.84899998 -0.040365316 0.77912956 -0.44364801 0.89749414
-10.422 9.8439999 -0.85500002 -0.046520002 0.80625004 -0.42346573 0.91188073
-10.48 9.835 -0.85799998 -0.05440487 0.80343318 -0.42623484 0.91112071
-10.531 9.8210001 -0.86000001 -0.074746653 0.79874694 -0.43006116 0.9102397
-10.583 9.8389997 -0.86299998 -0.10360686 0.79816282 -0.42940491 0.91224277
-10.644 9.8339996 -0.866 -0.1449863 0.79431987 -0.42941439 0.91452819
-10.708 9.8299999 -0.87 -0.17238858 0.79050779 -0.41922128 0.91124469
-10.772 9.8269997 -0.87300003 -0.18962118 0.78527975 -0.42006204 0.91053426
-10.815 9.8039999 -0.87400001 -0.19687583 0.79866403 -0.39983469 0.91459942
-10.936 9.7889996 -0.88 -0.23776035 0.78732061 -0.40308195 0.91590327
-10.919 9.743 -0.87699997 -0.24303143 0.76181138 -0.41050947 0.8988542
-10.925 9.6870003 -0.87400001 -0.24828233 0.77097291 -0.40177384 0.90413803
-10.923 9.6239996 -0.87099999 -0.2596834 0.74045843 -0.39867467 0.88014525
-10.099 9.7729998 -0.926 -0.034944165 0.76648676 -0.45617694 0.89264798
-10.184 9.7939997 -0.93199998 -0.036936503 0.77687013 -0.45381546 0.9004665
-10.194 9.7720003 -0.93199998 -0.038058277 0.77709854 -0.45248777 0.90004212
-10.284 9.7959995 -0.93800002 -0.034985092 0.77766669 -0.45596135 0.90215862
-10.346 9.7939997 -0.94199997 -0.040779807 0.78221023 -0.45244172 0.90455478
-10.399 9.7819996 -0.94400001 -0.043871749 0.80179119 -0.43974414 0.9155156
-10.471 9.7889996 -0.949 -0.05188287 0.80238897 -0.4374882 0.91537738
-10.542 9.7930002 -0.95300001 -0.10124896 0.7961061 -0.45168868 0.92090118
-10.604 9.7889996 -0.95700002 -0.12435003 0.79504752 -0.44689518 0.92047751
-10.652 9.8030005 -0.95999998 -0.13878569 0.79279065 -0.45285815 0.92350364
-10.727 9.809 -0.96499997 -0.17455433 0.78894925 -0.43510723 0.91773009
-10.893 9.7749996 -0.97299999 -0.21118723 0.77642179 -0.42779747 0.91128564
-10.962 9.7749996 -0.977 -0.22044472 0.78028548 -0.42622933 0.916031
-10.993 9.7399998 -0.977 -0.23102625 0.77620965 -0.4291929 0.9165594
-10.054 9.7480001 -1.003 -0.059902154 0.76882041 -0.45425439 0.8949973
-10.111 9.7410002 -1.006 -0.053987432 0.77316952 -0.45008558 0.89626044
-10.182 9.7480001 -1.011 -0.04885846 0.77786505 -0.45318246 0.90157396
-10.232 9.7650003 -1.015 -0.049446531 0.77799773 -0.45219794 0.90122604
-10.303 9.7709999 -1.02 -0.042648658 0.78245282 -0.4511632 0.90421212
-10.373 9.776 -1.024 -0.041696999 0.80185479 -0.43784195 0.91455746
-10.43 9.7670002 -1.027 -0.046792246 0.80180514 -0.44109741 0.91632301
-10.497 9.7679996 -1.0319999 -0.092383169 0.79679847 -0.44860584 0.91905916
-10.554 9.7600002 -1.035 -0.10188767 0.79669154 -0.44632 0.91885799
-10.633 9.7709999 -1.04 -0.13569681 0.79459345 -0.4398095 0.91827273
-10.681 9.7840004 -1.044 -0.13564359 0.79453647 -0.44045961 0.91852713
-10.797 9.7659998 -1.05 -0.16173601 0.78575283 -0.43688855 0.91347557
-10.87 9.7700005 -1.0549999 -0.18315634 0.7835626 -0.4263218 0.91064095
-10.883 9.7200003 -1.053 -0.19025885 0.76195943 -0.43371102 0.89715433
-10.86 9.6389999 -1.0470001 -0.1993252 0.75779849 -0.44739097 0.90230137
-10.79 9.5159998 -1.036 -0.19738831 0.761397 -0.42733404 0.89515465
-10.024 9.7390003 -1.084 -0.053911533 0.76890308 -0.4484368 0.89174771
-10.076 9.7279997 -1.086 -0.062609725 0.77432865 -0.44233066 0.89395821
-10.142 9.7309999 -1.091 -0.06520123 0.7743212 -0.44427821 0.89510202
-10.216 9.7410002 -1.096 -0.056640796 0.78546071 -0.43743378 0.90083575
-10.291 9.7510004 -1.102 -0.046902366 0.78344142 -0.4425723 0.90102744
-10.35 9.7460003 -1.1059999 -0.04724019 0.80280697 -0.43052632 0.91218621
-10.402 9.7639999 -1.11 -0.047260903 0.80278409 -0.43081543 0.91230357
-10.463 9.7600002 -1.114 -0.067381307 0.79831415 -0.43413502 0.9112184
-10.523 9.7539997 -1.118 -0.1032709 0.79768693 -0.43548864 0.91466916
-10.589 9.7530003 -1.122 -0.11244299 0.79760468 -0.42979458 0.91298413
-10.682 9.7779999 -1.13 -0.12974319 0.77524233 -0.43855718 0.90009242
-10.725 9.7550001 -1.132 -0.14123982 0.7814734 -0.4244141 0.90043139
-10.804 9.7659998 -1.138 -0.15304643 0.78857052 -0.4145737 0.90395689
-10.857 9.7209997 -1.138 -0.16517638 0.76760757 -0.42451921 0.89259237
-10.84 9.6450005 -1.133 -0.16054037 0.76739001 -0.42367971 0.89115947
-10.078 9.7290001 -1.176 -0.069835313 0.77512825 -0.43517056 0.89166933
-10.137 9.7250004 -1.1799999 -0.07249099 0.77507102 -0.43780994 0.89312238
-10.188 9.743 -1.184 -0.061058305 0.78628826 -0.42740601 0.89702463
-10.261 9.7510004 -1.1900001 -0.052695982 0.78441083 -0.43226773 0.89718038
-10.326 9.7510004 -1.1950001 -0.046927191 0.80349869 -0.42072159 0.90819544
-10.393 9.7530003 -1.2 -0.053581923 0.79869628 -0.42202634 0.90492707
-10.454 9.7480001 -1.204 -0.055026136 0.79877687 -0.4218387 0.90499735
-10.518 9.7469997 -1.2079999 -0.10239388 0.77792227 -0.42561904 0.89263606
-10.594 9.7550001 -1.214 -0.11441278 0.77718699 -0.42629617 0.89377761
-10.642 9.7679996 -1.219 -0.11591242 0.77724183 -0.42129087 0.89164263
-10.702 9.7609997 -1.223 -0.11889391 0.78418845 -0.41281721 0.89415061
-10.768 9.7600002 -1.227 -0.12331623 0.78381038 -0.41257152 0.89430469
-10.887 9.7440004 -1.235 -0.14700919 0.78140271 -0.40131569 0.89064932
-10.9 9.6929998 -1.232 -0.14566767 0.78822696 -0.38502017 0.88924766
-10.881 9.6160002 -1.226 -0.1534754 0.78685462 -0.38185516 0.88797987
-10.055 9.7229996 -1.26 -0.052631103 0.7748819 -0.41469643 0.88044596
-10.115 9.7209997 -1.2640001 -0.058028776 0.77518809 -0.41820478 0.88271123
-10.189 9.7299995 -1.27 -0.05178494 0.78638721 -0.41285235 0.88968176
-10.258 9.7349997 -1.276 -0.05740913 0.80527174 -0.40042847 0.90116668
-10.302 9.7460003 -1.28 -0.05166107 0.8045966 -0.39827114 0.89925772
-10.384 9.7620001 -1.2869999 -0.056978568 0.7996031 -0.40417692 0.89775866
-10.432 9.7449999 -1.29 -0.05918793 0.79967803 -0.40475419 0.89822829
-10.501 9.7489996 -1.295 -0.076026209 0.77868569 -0.41788471 0.88699436
-10.567 9.7489996 -1.3 -0.091781646 0.77849007 -0.4196116 0.8891257
-10.63 9.7449999 -1.3049999 -0.1113757 0.7669127 -0.41138962 0.87738311
-10.688 9.7370005 -1.309 -0.1169195 0.76650751 -0.4119786 0.87802637
-10.742 9.7550001 -1.314 -0.12567347 0.7656951 -0.40794614 0.87664294
-10.877 9.7539997 -1.325 -0.13097773 0.78341699 -0.39102274 0.88532263
-10.928 9.7379999 -1.3279999 -0.13134296 0.7898823 -0.37530822 0.88431966
-10.059 9.7489996 -1.354 -0.032563321 0.7730068 -0.41251606 0.87679493
-10.13 9.7559996 -1.36 -0.057564016 0.77526605 -0.4024277 0.87538511
-10.206 9.7679996 -1.367 -0.053438466 0.78660953 -0.3976942 0.88304639
-10.264 9.7609997 -1.3710001 -0.055883657 0.80536616 -0.38585845 0.89477617
-10.335 9.7670002 -1.377 -0.060564004 0.79987657 -0.38869324 0.89137703
-10.38 9.7779999 -1.382 -0.062142357 0.79993737 -0.39004338 0.89212966
-10.438 9.7709999 -1.386 -0.064522676 0.79999846 -0.38835877 0.89161831
-10.512 9.7790003 -1.393 -0.077755406 0.77880096 -0.4072378 0.88228083
-10.575 9.776 -1.397 -0.097918227 0.7783308 -0.39694232 0.87917578
-10.643 9.776 -1.403 -0.098812647 0.78538108 -0.39028364 0.88255805
-10.714 9.7799997 -1.409 -0.1011634 0.78518808 -0.38709098 0.88124561
-10.764 9.7629995 -1.4119999 -0.10558388 0.76668876 -0.39048743 0.8668564
-10.824 9.7860003 -1.419 -0.10549381 0.77445626 -0.38417083 0.87091833
-10.942 9.7679996 -1.427 -0.11071758 0.79148978 -0.36632681 0.87915289
-10.889 9.6599998 -1.415 -0.11979284 0.79050314 -0.36342159 0.87824869
-10.022 9.7360001 -1.436 -0.015287548 0.74499011 -0.42025477 0.85548699
-10.11 9.7600002 -1.4450001 -0.03686804 0.77350998 -0.40450889 0.8736729
-10.143 9.7309999 -1.446 -0.042237233 0.78359473 -0.3963016 0.87912434
-10.224 9.7469997 -1.454 -0.052814744 0.80513501 -0.37842295 0.89119905
-10.301 9.7580004 -1.461 -0.055061094 0.79958266 -0.38314167 0.88834774
-10.354 9.7480001 -1.465 -0.058984987 0.79976404 -0.38400552 0.88913554
-10.424 9.7519999 -1.471 -0.067121565 0.77858973 -0.39892724 0.87741107
-10.471 9.7650003 -1.476 -0.070812888 0.77865183 -0.39827934 0.87746203
-10.537 9.7650003 -1.482 -0.079819851 0.76231217 -0.40917167 0.86885703
-10.591 9.7530003 -1.4859999 -0.079878427 0.76789653 -0.40145075 0.87017721
-10.665 9.7600002 -1.493 -0.08934243 0.76745027 -0.39278042 0.86674011
-10.73 9.7580004 -1.498 -0.093569756 0.76680845 -0.38311148 0.86227888
-10.779 9.7410002 -1.501 -0.099677153 0.77575648 -0.37569776 0.867688
-10.851 9.7440004 -1.508 -0.10825993 0.78408861 -0.36270165 0.87067086
-10.038 9.7620001 -1.52 -0.017224796 0.74524164 -0.41796309 0.8546198
-10.089 9.75 -1.523 -0.034994919 0.77331024 -0.40535524 0.87381136
-10.152 9.75 -1.529 -0.038874596 0.78328395 -0.40310556 0.88178176
-10.232 9.7639999 -1.5369999 -0.046387002 0.79922104 -0.39919096 0.8945722
-10.303 9.7700005 -1.544 -0.067027748 0.80035305 -0.40316561 0.89866579
-10.354 9.757 -1.5470001 -0.05794657 0.79925561 -0.41519767 0.90252781
-10.432 9.7690001 -1.5549999 -0.065338932 0.77796799 -0.43295261 0.8927213
-10.472 9.7749996 -1.5599999 -0.063153982 0.77778989 -0.43509305 0.89344925
-10.544 9.7799997 -1.566 -0.067351423 0.7816757 -0.41810751 0.88902587
-10.604 9.7740002 -1.571 -0.074895784 0.7678169 -0.39875218 0.86842126
-10.673 9.7749996 -1.5779999 -0.078627206 0.76772308 -0.39595675 0.86738843
-10.731 9.7670002 -1.582 -0.079573028 0.76757145 -0.39238259 0.86571467
-10.802 9.7690001 -1.589 -0.082402371 0.78766775 -0.37539393 0.87643099
-10.832 9.7349997 -1.589 -0.091476142 0.78665495 -0.36002028 0.86994743
-10.877 9.7449999 -1.594 -0.091638312 0.79163384 -0.35181856 0.87112457
-9.9840002 9.7110004 -1.582 -0.023474909 0.74411702 -0.42480728 0.8571595
-10.047 9.7119999 -1.5880001 -0.03342694 0.76004958 -0.42535791 0.87162036
-10.106 9.7080002 -1.5930001 -0.034220085 0.77341557 -0.42786333 0.88453925
-10.159 9.7270002 -1.6 -0.047472451 0.80112255 -0.41616118 0.90401387
-10.252 9.7559996 -1.6109999 -0.05402619 0.79836696 -0.42846641 0.90768504
-10.286 9.7259998 -1.6109999 -0.075341173 0.76199156 -0.46483952 0.89575845
-10.358 9.7329998 -1.619 -0.063373774 0.75904596 -0.46607006 0.89296603
-10.413 9.724 -1.623 -0.073198393 0.75627559 -0.49083498 0.90456051
-10.476 9.7209997 -1.6289999 -0.067461759 0.75762868 -0.48628399 0.90278703
-10.541 9.7200003 -1.635 -0.049040947 0.76228368 -0.48536918 0.90502191
-10.624 9.7349997 -1.6440001 -0.04201195 0.7622177 -0.48260275 0.90313137
-10.66 9.7370005 -1.647 -0.047877751 0.76623392 -0.44617611 0.88796383
-10.736 9.7449999 -1.655 -0.079373494 0.76759654 -0.38763946 0.86357915
-9.9029999 9.6029997 -1.661 0.038694486 0.72179937 -0.4427852 0.84767354
-10.132 9.7620001 -1.698 -0.059588928 0.7932384 -0.45095521 0.91440612
-10.207 9.7729998 -1.707 -0.065886229 0.79181528 -0.46490848 0.92057174
-10.256 9.7580004 -1.71 -0.055256665 0.79447532 -0.46353433 0.92147076
-10.336 9.7720003 -1.719 -0.081288345 0.79170698 -0.48520273 0.93211019
-10.377 9.7799997 -1.724 -0.075913146 0.79101658 -0.48748532 0.93226177
-10.446 9.783 -1.7309999 -0.070675127 0.77195245 -0.50459844 0.92494607
-10.513 9.7840004 -1.738 -0.055756621 0.7533716 -0.51007593 0.91151249
-10.578 9.783 -1.744 -0.04475816 0.75846046 -0.50693035 0.91336954
-10.641 9.7790003 -1.75 -0.030763313 0.75591683 -0.51414549 0.91471428
-10.713 9.783 -1.757 -0.047620557 0.76721817 -0.41907123 0.87550676
-10.788 9.7889996 -1.765 -0.069692567 0.78742677 -0.36622787 0.87121803
-10.834 9.8000002 -1.771 -0.078647539 0.78291905 -0.36508536 0.86743009
-10.908 9.8039999 -1.779 -0.073286958 0.78802013 -0.35244578 0.86635143
-10.923 9.757 -1.776 -0.070504606 0.78807604 -0.35291594 0.86636275
-10.024 9.7360001 -1.78 -0.037445277 0.74616456 -0.46186119 0.87833905
-10.111 9.7600002 -1.791 -0.062694602 0.79189456 -0.46248791 0.91919678
-10.157 9.743 -1.794 -0.062386718 0.78812599 -0.4850502 0.92752814
-10.221 9.743 -1.801 -0.05916502 0.78904343 -0.47898647 0.9249422
-10.302 9.7580004 -1.811 -0.080588594 0.7867642 -0.50780976 0.93987405
-10.37 9.7609997 -1.818 -0.096956924 0.74906969 -0.54116744 0.92917615
-10.428 9.7539997 -1.823 -0.083744347 0.74365592 -0.55380881 0.9309895
-10.476 9.7690001 -1.83 -0.066764131 0.74657643 -0.54251885 0.92528945
-10.547 9.7740002 -1.837 -0.055776592 0.7537654 -0.53173107 0.92412728
-10.616 9.7749996 -1.845 -0.028111413 0.74832892 -0.54506004 0.92621642
-10.826 9.783 -1.867 -0.059616104 0.77752268 -0.34800839 0.8539353
-10.16 9.7729998 -1.8609999 -0.051775414 0.77255988 -0.54254824 0.94545656
-10.205 9.7550001 -1.864 -0.048873704 0.77346241 -0.53885925 0.94392908
-10.25 9.7370005 -1.867 -0.093258142 0.7262519 -0.6068337 0.95099211
-10.278 9.7019997 -1.8660001 -0.10219365 0.72238111 -0.61710197 0.95555896
-10.317 9.677 -1.868 -0.093663245 0.72389591 -0.61411607 0.953906
-10.334 9.6330004 -1.865 -0.10873505 0.71770984 -0.62676728 0.95904529
-10.342 9.6099997 -1.864 -0.10873505 0.71770984 -0.62676728 0.95904529
