# .PCD v0.7 - Point Cloud Data file format
VERSION 0.7
FIELDS x y z normal_x normal_y normal_z curvature
SIZE 4 4 4 4 4 4 4
TYPE F F F F F F F
COUNT 1 1 1 1 1 1 1
WIDTH 97
HEIGHT 1
VIEWPOINT 0 0 0 1 0 0 0
POINTS 97
DATA ascii
-20.382 3.9430001 -0.72000003 -0.065667108 0.46688962 -0.79834867 0.92717779
-20.533001 3.9059999 -0.72600001 -0.075889692 0.49349239 -0.75606161 0.90604812
-20.728001 3.875 -0.73400003 -0.046031348 0.48350796 -0.77370191 0.91351712
-20.937 3.8469999 -0.74299997 -0.020452978 0.49433106 -0.76246625 0.90892041
-19.784 3.9170001 -0.80900002 0.47430861 0.2698245 -0.35208157 0.64941156
-19.739 3.8429999 -0.80599999 0.27444711 0.52134764 -0.55618834 0.81022835
-20.676001 3.789 -0.852 -0.052786089 0.50382346 -0.74135995 0.89790815
-19.708 3.8770001 -0.93300003 -0.096551202 0.56295663 -0.64766318 0.86354494
-19.743 3.8199999 -0.93400002 -0.10013694 0.55621672 -0.65099525 0.86209005
-20.739 3.711 -0.98799998 -0.021956075 0.51747513 -0.71518952 0.88303941
-19.650999 3.763 -1.035 -0.10044274 0.55699533 -0.65197963 0.86337125
-20.788 3.675 -1.103 -0.0051670633 0.54064453 -0.65974897 0.85298997
-21.662001 3.5480001 -1.155 -0.047570825 0.55641431 -0.46037334 0.72374266
-21.673 3.48 -1.155 -0.048399165 0.55017972 -0.46113843 0.71950597
-19.628 3.7969999 -1.173 -0.10018216 0.56352735 -0.63225216 0.85284364
-19.718 3.7509999 -1.179 -0.079417892 0.5658527 -0.63534546 0.85449415
-19.872999 3.7160001 -1.189 -0.059417211 0.56547165 -0.64410049 0.85915887
-20.041 3.6819999 -1.2 -0.045811802 0.57958561 -0.57502115 0.81772095
-20.235001 3.6530001 -1.2130001 -0.040930938 0.57460368 -0.52264422 0.77781856
-20.448999 3.625 -1.227 -0.0069983057 0.55808175 -0.59088022 0.81279993
-20.665001 3.6300001 -1.2410001 -0.018016428 0.56064165 -0.59030968 0.81431514
-20.906 3.605 -1.258 -0.035245236 0.55617744 -0.59694129 0.8166483
-21.159 3.5810001 -1.274 -0.015667159 0.56294 -0.55684489 0.79197419
-21.424 3.5569999 -1.2920001 -0.02994616 0.56372148 -0.50770855 0.75924081
-21.707001 3.5339999 -1.311 -0.026799491 0.55373424 -0.48996809 0.73987067
-21.874001 3.4909999 -1.322 -0.015704677 0.54980493 -0.46865603 0.72261375
-22.273001 3.483 -1.349 0.0071003195 0.55495679 -0.4645229 0.72374654
-19.629999 3.7609999 -1.271 -0.082805231 0.56785232 -0.62641549 0.84953475
-19.693001 3.74 -1.276 -0.085525237 0.56743783 -0.62595767 0.84918976
-19.794001 3.6949999 -1.2819999 -0.074693732 0.5673545 -0.61123425 0.83730376
-20.007999 3.6700001 -1.298 -0.026897555 0.58336341 -0.57359642 0.81856531
-20.202 3.6400001 -1.311 -0.045460403 0.57224119 -0.52160382 0.77562696
-20.41 3.6110001 -1.326 -0.04405769 0.56678092 -0.50305074 0.75910586
-20.663 3.5880001 -1.344 -0.018743953 0.56491411 -0.56458467 0.79889619
-20.952999 3.5699999 -1.365 -0.032536823 0.56442505 -0.54508388 0.78533477
-21.148001 3.569 -1.3789999 -0.015667159 0.56294 -0.55684489 0.79197419
-21.454 3.5510001 -1.401 -0.03282911 0.56328773 -0.51453143 0.76361865
-21.743 3.529 -1.4220001 -0.019093508 0.55031753 -0.48543653 0.73407257
-22.041 3.506 -1.443 -0.017703805 0.5494802 -0.47155362 0.72429603
-22.305 3.4749999 -1.462 0.00082514435 0.55479348 -0.46821052 0.72595972
-19.67 3.6849999 -1.405 -0.079725489 0.57447129 -0.60337144 0.83691728
-19.788 3.675 -1.414 -0.063601427 0.57899451 -0.56212109 0.80948126
-19.959999 3.642 -1.427 -0.030106736 0.59004742 -0.52328187 0.78923148
-20.252001 3.6300001 -1.45 -0.037605636 0.56731135 -0.50320667 0.75925839
-20.461 3.602 -1.466 -0.036789056 0.56578374 -0.49514964 0.75275356
-20.728001 3.582 -1.487 -0.028274879 0.56869793 -0.5178436 0.76966149
-20.971001 3.556 -1.505 -0.034352854 0.56063461 -0.50075239 0.75249201
-21.240999 3.5339999 -1.527 -0.028721573 0.55938065 -0.49708578 0.74888307
-21.532 3.5480001 -1.55 -0.0087984055 0.55515176 -0.48596033 0.73785388
-21.826 3.526 -1.573 -0.013068277 0.55152571 -0.47404954 0.72737497
-22.127001 3.5039999 -1.596 -0.0071451273 0.55613643 -0.46580765 0.72547609
-22.615999 3.5090001 -1.635 -0.0095108226 0.54396802 -0.41336095 0.68327075
-22.659 3.4430001 -1.638 -0.0095108226 0.54396802 -0.41336095 0.68327075
-19.604 3.6700001 -1.5140001 -0.087296911 0.58389115 -0.53731793 0.79828578
-19.721001 3.6270001 -1.523 -0.046835363 0.58489108 -0.53123105 0.79151601
-20.223 3.6860001 -1.566 -0.041016884 0.56692898 -0.48429739 0.74674952
-20.184999 3.6140001 -1.562 -0.045862056 0.5665223 -0.49203444 0.75176376
-20.511 3.605 -1.589 -0.023141677 0.56495804 -0.45519179 0.72588754
-20.743999 3.579 -1.609 -0.047689337 0.55993718 -0.46046534 0.72652066
-20.976999 3.5510001 -1.628 -0.025474152 0.56133038 -0.48878375 0.74474847
-21.264999 3.5309999 -1.652 -0.022816934 0.55964059 -0.48897445 0.74351478
-21.570999 3.5120001 -1.678 -0.0027882354 0.55490386 -0.47253567 0.72884566
-21.878 3.526 -1.704 -0.0072194543 0.54967439 -0.45775768 0.7153573
-22.190001 3.5039999 -1.73 0.024367496 0.55127829 -0.41118327 0.68816656
-22.643999 3.503 -1.7690001 -0.062483799 0.54159015 -0.45600107 0.71074688
-19.729 3.674 -1.643 -0.029169323 0.58829874 -0.50171787 0.77373582
-20.197001 3.6300001 -1.6849999 -0.048782088 0.56612343 -0.50369805 0.75933337
-20.445 3.642 -1.7079999 -0.036407057 0.55814499 -0.408261 0.69247985
-20.716 3.6229999 -1.732 -0.056431431 0.55649424 -0.3959648 0.68531632
-20.988001 3.6040001 -1.756 -0.035075717 0.56246531 -0.4302628 0.70903009
-21.302999 3.589 -1.785 -0.028102221 0.55142725 -0.40087724 0.68232268
-21.584 3.5669999 -1.8099999 0.0044839177 0.55563247 -0.49136522 0.74174613
-21.900999 3.549 -1.8380001 0.076963373 0.54502994 -0.43136242 0.69932431
-22.054001 3.503 -1.851 -0.00058423541 0.53498536 -0.37007713 0.6505127
-22.447001 3.53 -1.887 0.062931955 0.50973159 -0.28672409 0.58821547
-19.858999 3.7049999 -1.784 -0.015673889 0.58836395 -0.45869267 0.74620157
-20.052999 3.6760001 -1.802 -0.092267245 0.56260836 -0.54926056 0.79166192
-20.597 3.7079999 -1.855 -0.046252195 0.52812946 -0.3006978 0.60949087
-22.226999 3.6760001 -2.013 0.024431132 0.51115865 -0.26646268 0.57695961
-22.120001 3.5869999 -2.0009999 -0.0022316985 0.5104686 -0.29912519 0.59165788
-22.149 3.52 -2.003 0.024483796 0.50336695 -0.26744139 0.57052833
-19.724001 3.6889999 -1.8940001 -0.0016732756 0.58875531 -0.4543992 0.74371648
-19.927 3.6619999 -1.914 -0.10103919 0.5668391 -0.55947626 0.80282575
-21.763 3.8959999 -2.1070001 0.50154382 0.12894058 -0.61283994 0.80233699
-21.752001 3.753 -2.1040001 0.50867367 0.14109999 -0.42664999 0.67874026
-21.722 3.678 -2.099 0.5116595 0.13782021 -0.43350345 0.68462771
-21.712 3.6059999 -2.0969999 0.50655025 0.15149942 -0.41415924 0.67161977
-21.700001 3.5339999 -2.0940001 0.4946883 0.17459621 -0.40808725 0.6646319
-21.701 3.4990001 -2.0940001 0.49337447 0.18832587 -0.42217886 0.67610645
-21.705999 3.4300001 -2.0929999 0.48827398 0.20562316 -0.41856298 0.67519426
-21.686001 3.3570001 -2.0899999 0.4782272 0.24568056 -0.49884406 0.73342049
-19.747999 3.6919999 -2.0280001 -0.0044364799 0.58999217 -0.485443 0.76404536
-20.268 3.6570001 -2.0840001 -0.26649058 -0.010248683 -0.084844053 0.2798585
-20.242001 3.5869999 -2.0799999 0.38977784 0.20318727 -0.78658175 0.9010675
-20.216 3.55 -2.0769999 -0.26042852 -0.025831927 -0.083533913 0.2747148
-20.222 3.4849999 -2.076 -0.25995985 -0.03086599 -0.084230483 0.27500293
-20.184999 3.414 -2.0710001 -0.26040527 -0.031783391 -0.084386438 0.27557606
