# .PCD v0.7 - Point Cloud Data file format
VERSION 0.7
FIELDS x y z normal_x normal_y normal_z curvature
SIZE 4 4 4 4 4 4 4
TYPE F F F F F F F
COUNT 1 1 1 1 1 1 1
WIDTH 307
HEIGHT 1
VIEWPOINT 0 0 0 1 0 0 0
POINTS 307
DATA ascii
-5.0890002 16.916 0.26199999 -0.15958419 0.53074002 -0.3906658 0.67806482
-5.2160001 16.857 0.26199999 -0.19509713 0.51352698 -0.37551844 0.66542238
-5.2729998 16.854 0.26199999 -0.19431175 0.51685011 -0.3872658 0.67443746
-5.3179998 16.809999 0.26199999 -0.20058554 0.51605135 -0.3954336 0.68037587
-5.369 16.790001 0.26199999 -0.22040974 0.50592399 -0.39643016 0.67948246
-5.4200001 16.767 0.26199999 -0.23645143 0.49845862 -0.40070421 0.6818608
-5.4660001 16.729 0.26199999 -0.27540496 0.4688673 -0.37917915 0.66291875
-5.5139999 16.698 0.26199999 -0.2792179 0.4663913 -0.37974826 0.66309291
-5.5430002 16.697001 0.26199999 -0.28177801 0.46845782 -0.40212789 0.67864454
-5.5879998 16.657 0.26199999 -0.26888216 0.4765873 -0.40010801 0.67787868
-5.6409998 16.643 0.26199999 -0.26310298 0.47766739 -0.40067533 0.6767053
-5.6630001 16.535999 0.26199999 -0.26618353 0.47575009 -0.40102533 0.67676669
-5.678 16.410999 0.26199999 -0.26624635 0.4745518 -0.37967381 0.6635049
-5.7820001 16.544001 0.26199999 -0.26165003 0.4766753 -0.3959634 0.67265671
-5.8330002 16.521999 0.26199999 -0.25822225 0.47846755 -0.39435601 0.67165959
-5.8509998 16.492001 0.26199999 -0.25907424 0.47677666 -0.38977367 0.66810101
-6.0339999 16.351 0.26199999 -0.26485091 0.45528373 -0.32169056 0.61718237
-6.0900002 16.346001 0.26199999 -0.27768564 0.46190491 -0.37717018 0.65781671
-6.131 16.298 0.26199999 -0.3031444 0.44154352 -0.40937886 0.67412776
-6.1420002 16.249001 0.26199999 -0.32057148 0.43573821 -0.47722921 0.72137475
-6.1880002 16.216999 0.26199999 0.35967702 -0.29683697 -0.4510242 0.64877003
-6.2360001 16.190001 0.26100001 0.38233539 -0.27527696 -0.47619855 0.66986775
-6.2509999 16.077 0.26100001 0.37773812 -0.28096399 -0.49072614 0.68002868
-6.2940001 16.039 0.26100001 0.39524451 -0.26531062 -0.45884666 0.66117185
-6.3740001 16.094999 0.26100001 0.39557454 -0.26484478 -0.45821708 0.66074568
-6.427 16.08 0.26100001 0.40864706 -0.24302956 -0.42679667 0.63891411
-6.4460001 16.054001 0.26100001 0.41713405 -0.23270059 -0.43190545 0.64396638
-6.4260001 15.861 0.26100001 0.37780565 -0.13400064 -0.21087539 0.45294783
-6.4829998 15.857 0.26100001 0.32978314 -0.12728778 -0.15490854 0.38594785
-5.303 16.865999 0.17900001 -0.21078199 0.51501864 -0.41279918 0.69287544
-5.3520002 16.836 0.17900001 -0.22292335 0.51577091 -0.4637332 0.72853482
-5.4039998 16.818001 0.17900001 -0.23306416 0.50791049 -0.44720727 0.71574181
-5.4530001 16.787001 0.17900001 -0.26050177 0.49475694 -0.50181222 0.7513063
-5.5050001 16.77 0.17900001 -0.27411047 0.48598334 -0.50920457 0.75538445
-5.553 16.737 0.17900001 -0.27758199 0.48195234 -0.49225456 0.74272764
-5.5809999 16.732 0.17900001 -0.27095437 0.48607618 -0.48381698 0.73740435
-5.6399999 16.733999 0.17900001 -0.27302003 0.47971582 -0.42981797 0.69957894
-5.6859999 16.698999 0.17900001 -0.26552823 0.48169202 -0.4293634 0.69777173
-5.7119999 16.603001 0.17900001 -0.26037434 0.48957711 -0.51835686 0.75906152
-5.724 16.469999 0.17900001 -0.23856243 0.50424111 -0.54532599 0.78009719
-5.8330002 16.614 0.17900001 -0.26170281 0.48385888 -0.43281588 0.69995528
-5.8850002 16.596001 0.17900001 -0.25386104 0.48431891 -0.43426147 0.69827878
-5.9029999 16.563999 0.17900001 -0.25951385 0.48063695 -0.43340147 0.69727767
-5.9520001 16.538 0.17900001 -0.25438735 0.4803834 -0.41329509 0.68285722
-6.1290002 16.379999 0.17900001 -0.3126528 0.44627589 -0.44682789 0.70467657
-6.1700001 16.334 0.17900001 -0.31143859 0.4502086 -0.47721976 0.72623718
-6.2210002 16.313 0.17900001 -0.32177451 0.43508986 -0.49455512 0.73309398
-6.2410002 16.288 0.17900001 0.36799592 -0.28845671 -0.48490229 0.67361599
-6.2919998 16.268 0.17900001 0.38850525 -0.27363864 -0.49050966 0.68294519
-6.3000002 16.139 0.18000001 0.38351086 -0.28082365 -0.49913982 0.68926269
-6.3439999 16.101999 0.18000001 0.3937363 -0.26847827 -0.47370097 0.6719386
-6.434 16.18 0.17900001 0.39440313 -0.26781091 -0.47536433 0.67323679
-6.4780002 16.145 0.18000001 0.40241504 -0.25317091 -0.4368225 0.64563709
-6.5180001 16.097 0.18000001 0.41907644 -0.22621334 -0.41707045 0.63304448
-6.4780002 15.928 0.18000001 0.41911721 -0.23031303 -0.43368405 0.64558899
-6.5289998 15.909 0.18000001 0.32978314 -0.12728778 -0.15490854 0.38594785
-6.6110001 15.966 0.18000001 0.32912815 -0.1738365 -0.19536567 0.42037153
-5.0749998 16.892 0.067000002 -0.088371836 0.55961108 -0.47638279 0.74021262
-5.2550001 16.91 0.066 -0.19552583 0.52818108 -0.52584195 0.77052927
-5.3080001 16.895 0.066 -0.2094959 0.51867431 -0.55928528 0.79101932
-5.3280001 16.865999 0.067000002 -0.2077485 0.51978207 -0.55697834 0.7896567
-5.3790002 16.841999 0.067000002 -0.23023412 0.51261264 -0.51968974 0.76541287
-5.4320002 16.825001 0.067000002 -0.24415138 0.50252604 -0.53719705 0.77506322
-5.4780002 16.787001 0.067000002 -0.27957803 0.48113939 -0.52996039 0.76845104
-5.5289998 16.764 0.067000002 -0.26727983 0.48861405 -0.5363313 0.77319688
-5.5809999 16.746 0.067000002 -0.28099495 0.48185554 -0.54137874 0.7773248
-5.6269999 16.708 0.067000002 -0.25683534 0.49271888 -0.53900987 0.77412397
-5.6750002 16.679001 0.067000002 -0.23698437 0.50261837 -0.52757645 0.76623994
-5.704 16.677 0.067000002 -0.23078014 0.50598812 -0.52712208 0.76625139
-5.7069998 16.514999 0.068000004 -0.21076123 0.51888365 -0.54208547 0.77943391
-5.7870002 16.577 0.068000004 -0.23562606 0.50367922 -0.48633915 0.73874092
-5.8470001 16.583 0.067000002 -0.24716061 0.49600339 -0.4622041 0.72162342
-5.8909998 16.542 0.068000004 -0.25178704 0.4924832 -0.45318925 0.71506429
-5.941 16.516001 0.068000004 -0.26308176 0.48413807 -0.43794748 0.70384634
-6.0450001 16.400999 0.068000004 -0.29864553 0.46598434 -0.47137314 0.726996
-6.0949998 16.378 0.068000004 -0.31022525 0.45761582 -0.46566501 0.72283876
-6.1409998 16.344 0.068000004 -0.31793293 0.44430453 -0.48326197 0.72940385
-6.1849999 16.306 0.068000004 0.36807284 -0.28825808 -0.48138312 0.67104399
-6.2329998 16.277 0.068999998 -0.32651767 0.43044835 -0.50913 0.74236983
-6.277 16.239 0.068999998 -0.33218542 0.42200911 -0.50481343 0.73707217
-6.296 16.212 0.068999998 -0.34414953 0.41058066 -0.49641588 0.73037261
-6.2950001 16.059999 0.07 0.37771919 -0.28085047 -0.48549581 0.67620629
-6.3039999 15.934 0.071000002 0.41220865 -0.23839952 -0.47993398 0.67608202
-5.1630001 16.973 -0.043000001 -0.10306364 0.55114943 -0.57262367 0.8014273
-5.2600002 16.909 -0.043000001 -0.16251151 0.53037381 -0.59747726 0.8152824
-5.3039999 16.864 -0.041999999 -0.17451023 0.52882779 -0.58437741 0.80722338
-5.4819999 16.784 -0.041999999 -0.27572146 0.48261285 -0.5431568 0.77714658
-5.5300002 16.753 -0.041999999 -0.27274546 0.48323166 -0.5522182 0.78284597
-5.5739999 16.709 -0.041000001 -0.26263028 0.49188867 -0.55380052 0.7858907
-5.6240001 16.684 -0.041000001 -0.23744528 0.50652099 -0.55008614 0.78456265
-5.6729999 16.657 -0.041000001 -0.22307698 0.51164454 -0.53160667 0.77081066
-5.7119999 16.599001 -0.041000001 -0.20086123 0.5198487 -0.53608 0.77328503
-5.704 16.493999 -0.039000001 -0.24131615 0.50399941 -0.56598461 0.79535371
-5.8010001 16.601999 -0.041000001 -0.20351557 0.5185228 -0.52958 0.76859581
-5.8449998 16.562 -0.041000001 -0.22702256 0.5087719 -0.53847742 0.77481997
-5.8930001 16.532 -0.039999999 -0.25559956 0.4922992 -0.55668199 0.78586549
-5.9400001 16.5 -0.039999999 -0.26752979 0.48025566 -0.58187896 0.80050039
-6.0929999 16.361 -0.039000001 0.34970894 -0.28347853 -0.4178488 0.61421007
-6.1430001 16.336 -0.039000001 0.36199677 -0.27528736 -0.43365419 0.62839538
-6.1890001 16.302999 -0.039000001 0.35680637 -0.29049039 -0.41520694 0.61975175
-6.2329998 16.264999 -0.039000001 0.34154966 -0.3138741 -0.45012408 0.64636278
-6.2750001 16.221001 -0.037999999 0.33900011 -0.31567654 -0.44646838 0.64335585
-6.3179998 16.183001 -0.037999999 0.35189942 -0.30379382 -0.44642857 0.64453268
-6.2859998 16.025999 -0.035999998 0.36787337 -0.28876123 -0.45311517 0.65117371
-6.368 16.086 -0.037 0.39111426 -0.27092469 -0.46640572 0.66626185
-5.0409999 16.777 -0.162 0.28557795 -0.31475422 -0.35409361 0.55317926
-5.4369998 16.660999 -0.162 -0.26146412 0.48364851 -0.59791589 0.8122701
-5.448 16.605 -0.161 -0.27142701 0.47687989 -0.60690027 0.81817782
-5.4770002 16.518 -0.16 -0.24138039 0.48926902 -0.62654692 0.83078861
-5.5219998 16.482 -0.15899999 -0.25583753 0.48975277 -0.59900618 0.81493497
-5.5700002 16.452999 -0.15899999 -0.24860147 0.50044274 -0.57204312 0.79967427
-5.6160002 16.417999 -0.15899999 -0.22163199 0.51326203 -0.57916963 0.80498207
-5.7160001 16.542 -0.162 -0.20879345 0.51912463 -0.57398754 0.8015902
-5.79 16.587999 -0.163 -0.20872498 0.516545 -0.56703722 0.79493147
-5.8239999 16.601999 -0.164 -0.19446176 0.52120793 -0.56357837 0.79189247
-5.8720002 16.57 -0.164 -0.22365679 0.51123375 -0.54912472 0.78289223
-5.9109998 16.514 -0.163 -0.26927051 0.48103321 -0.57218748 0.79454267
-5.9640002 16.18 -0.156 0.27017877 -0.27059475 -0.23777422 0.45028287
-6.0149999 16.160999 -0.156 0.29577079 -0.2823725 -0.28679562 0.49946603
-6.0780001 16.254999 -0.15899999 0.3290588 -0.30089512 -0.38832158 0.59127933
-6.1719999 16.348 -0.161 0.35889521 -0.27854186 -0.4355092 0.62933266
-6.2150002 16.308001 -0.161 0.35839859 -0.29408398 -0.4427827 0.64108616
-6.2589998 16.268 -0.16 0.34371135 -0.31158397 -0.44756526 0.64462137
-6.3080001 16.243999 -0.16 -0.3095718 0.4390718 -0.5435366 0.76423216
-6.303 16.079 -0.15700001 -0.27878797 0.46320778 -0.53870851 0.76321101
-6.3600001 16.076 -0.15700001 -0.32692528 0.42561448 -0.52791625 0.75281036
-5.4850001 16.709 -0.25400001 -0.24246497 0.50631964 -0.51756382 0.76355821
-5.5440001 16.709 -0.25400001 -0.22523709 0.51451874 -0.52209753 0.76684231
-5.6160002 16.75 -0.25600001 -0.231342 0.51269996 -0.51209307 0.76067054
-5.638 16.73 -0.25600001 -0.21551438 0.52055842 -0.5027681 0.75511807
-5.6880002 16.705 -0.255 -0.2385159 0.5090791 -0.5103991 0.75931454
-5.723 16.636 -0.25400001 -0.25009122 0.49900517 -0.53885597 0.77583343
-5.7490001 16.542 -0.252 -0.22807972 0.51221919 -0.55841887 0.79134095
-5.8410001 16.636999 -0.255 -0.22019812 0.51029855 -0.5327425 0.76987427
-5.8889999 16.607 -0.255 -0.20742486 0.51990461 -0.54280561 0.77972031
-5.9369998 16.577 -0.25400001 -0.23988524 0.50244063 -0.54978651 0.78246838
-5.9580002 16.472 -0.252 -0.27739084 0.47516385 -0.58756542 0.8049593
-6.0079999 16.530001 -0.25400001 -0.28958386 0.46963716 -0.54923904 0.7785123
-6.1399999 16.409 -0.252 -0.32664865 0.44302949 -0.52021217 0.75736064
-6.1830001 16.368 -0.252 -0.30555055 0.46383297 -0.50070721 0.74780339
-6.2259998 16.326 -0.25099999 -0.31422007 0.44780359 -0.4826265 0.72951394
-6.2779999 16.308001 -0.25099999 -0.32297581 0.43344188 -0.47531939 0.71980119
-6.2919998 16.268 -0.25 -0.33339247 0.41997871 -0.46988684 0.71297008
-6.3210001 16.193001 -0.249 -0.30259943 0.44703925 -0.4765076 0.72004861
-6.3369999 16.084999 -0.24600001 -0.28536004 0.45986181 -0.47122231 0.71760279
-6.4190001 16.143 -0.248 0.43992051 -0.20399959 -0.52944982 0.7179575
-5.098 16.771999 -0.35699999 -0.25695819 0.48748708 -0.59332621 0.80975747
-5.198 16.722 -0.35600001 -0.2633661 0.49225929 -0.54307842 0.77885497
-5.2480001 16.698 -0.35600001 -0.23659988 0.50875366 -0.52861297 0.77087057
-5.3109999 16.714001 -0.35699999 -0.22987871 0.50827265 -0.5632571 0.79274452
-5.4310002 16.909 -0.36399999 -0.15728372 0.54133421 -0.45359954 0.7235561
-5.4819999 16.618999 -0.35600001 -0.27302861 0.48685551 -0.56337684 0.79307401
-5.5539999 16.66 -0.35800001 -0.27205816 0.49097314 -0.52229446 0.76672143
-5.5679998 16.527 -0.354 -0.22904916 0.50331217 -0.60706127 0.82116383
-5.6830001 16.697001 -0.36000001 -0.24330156 0.50668043 -0.48561069 0.742791
-5.7319999 16.67 -0.36000001 -0.28696853 0.47560623 -0.50175297 0.74853742
-5.71 16.521 -0.35499999 -0.24952118 0.4922893 -0.60779554 0.82099026
-5.7210002 16.384001 -0.35100001 0.306564 -0.28641385 -0.33732411 0.53833252
-5.7639999 16.343 -0.34999999 0.29061037 -0.29881155 -0.32808679 0.53045613
-5.8060002 16.298 -0.34900001 0.29157025 -0.30052555 -0.33367181 0.53541172
-5.8839998 16.355 -0.352 0.25895411 -0.32963735 -0.33619592 0.53735065
-5.9679999 16.187 -0.34799999 -0.23855355 0.46075633 -0.66757876 0.84549725
-6.0079999 16.138 -0.347 -0.19513643 0.4970848 -0.6377728 0.83182073
-6.098 16.226 -0.34999999 0.27023757 -0.33815947 -0.36253238 0.56463253
-6.112 16.108999 -0.347 -0.24010466 0.48735642 -0.5936442 0.80472356
-6.152 16.062 -0.34599999 -0.27072662 0.46861294 -0.57781422 0.79168189
-6.2049999 16.048 -0.34599999 -0.23073938 0.49181005 -0.58007109 0.79473281
-6.3200002 16.195999 -0.352 0.36559421 -0.29257214 -0.46685812 0.66122168
-6.296 16.058001 -0.34799999 -0.26880187 0.46521795 -0.57264239 0.78523976
-6.3670001 16.09 -0.34900001 0.39234975 -0.26138896 -0.45375866 0.6543389
-6.4530001 16.160999 -0.35299999 0.44533277 -0.19702204 -0.49139747 0.69181675
-4.757 16.950001 -0.47499999 -0.10152008 0.52397746 -0.63165319 0.82694888
-4.7919998 16.971001 -0.47600001 -0.18194708 0.4184503 -0.20521003 0.50031644
-4.9520001 16.927 -0.47600001 -0.20437112 0.52107525 -0.43244281 0.70731449
-5.0079999 16.923 -0.47600001 -0.20344821 0.51794004 -0.41074926 0.69164151
-5.086 16.989 -0.47999999 -0.10544544 0.54976219 -0.41287738 0.69557524
-5.0910001 16.815001 -0.47299999 -0.19367048 0.529728 -0.48137721 0.74151468
-5.0970001 16.738001 -0.47099999 -0.24663232 0.50452834 -0.50319791 0.75404543
-5.223 16.771999 -0.47299999 -0.21664853 0.51937073 -0.51697201 0.76416135
-5.2680001 16.733 -0.472 -0.22842693 0.5139873 -0.50857627 0.75829524
-5.3179998 16.707001 -0.472 -0.24229065 0.50679302 -0.50792056 0.75731581
-5.3470001 16.618 -0.46900001 -0.19112255 0.53449154 -0.48635218 0.7474941
-5.5289998 16.733 -0.47499999 -0.22259016 0.51588416 -0.5208903 0.76616549
-5.5900002 16.738001 -0.47600001 -0.26300639 0.49331325 -0.54011476 0.77733797
-5.6290002 16.681 -0.47499999 -0.25043717 0.50422204 -0.52040011 0.76666474
-5.6750002 16.646 -0.47400001 -0.30578405 0.46928856 -0.5281927 0.76988518
-5.7150002 16.591999 -0.47299999 0.32109612 -0.29527891 -0.3993277 0.59140086
-5.7480001 16.518999 -0.47 0.29518646 -0.3061626 -0.36314753 0.5592376
-5.789 16.552 -0.472 0.30731714 -0.29758531 -0.35819334 0.55794561
-5.8460002 16.548 -0.47299999 0.2806527 -0.30987507 -0.32472226 0.52937043
-5.8979998 16.532 -0.47299999 0.26776829 -0.31890553 -0.32318294 0.52711272
-5.9520001 16.517 -0.47299999 0.26155105 -0.31761003 -0.31725061 0.5195508
-6.1110001 16.393 -0.47 0.28007349 -0.30723953 -0.31461459 0.52136326
-6.1630001 16.375 -0.47099999 0.25205272 -0.31099886 -0.28382087 0.49071902
-6.2069998 16.334999 -0.47 0.29917645 -0.29221344 -0.31851071 0.52568465
-6.2480001 16.289 -0.46900001 0.30674091 -0.31240574 -0.36579436 0.5705198
-6.296 16.261999 -0.46799999 0.33685303 -0.30686021 -0.3946701 0.60282469
-6.3299999 16.198 -0.46599999 0.35045525 -0.29039168 -0.38277948 0.59469855
-6.3330002 16.056999 -0.461 0.30952254 -0.32528746 -0.37885118 0.5874899
-6.4029999 16.087 -0.46399999 0.44364843 -0.18913838 -0.42305854 0.64154172
-5.059 16.870001 -0.57999998 -0.22556056 0.51226139 -0.44081783 0.71246731
-5.1500001 16.979 -0.58600003 -0.16061434 0.54208422 -0.49184972 0.74937868
-5.2160001 16.908001 -0.583 -0.16443108 0.54081577 -0.49204397 0.74941742
-5.2659998 16.882 -0.583 -0.19773759 0.52780002 -0.51607955 0.76420623
-5.3169999 16.860001 -0.583 -0.20412812 0.5252378 -0.51193631 0.76132894
-5.395 16.921 -0.58600003 -0.16204678 0.54117113 -0.47470558 0.73788261
-5.4310002 16.853001 -0.58399999 -0.17553009 0.53442043 -0.54405963 0.78257072
-5.5250001 16.781 -0.58200002 -0.26155782 0.48402202 -0.60094452 0.81475401
-5.5479999 16.761999 -0.58200002 -0.24409491 0.49116397 -0.60930181 0.81980062
-5.5970001 16.735001 -0.58099997 0.26943809 -0.32840109 -0.36163539 0.5578748
-5.6469998 16.708 -0.58099997 0.28346366 -0.31636676 -0.35647607 0.55454016
-5.6989999 16.688 -0.58099997 0.3122662 -0.30022791 -0.38395041 0.57884789
-5.684 16.476 -0.57200003 0.35855746 -0.24049729 -0.35274702 0.55752385
-5.7140002 16.396 -0.56900001 0.37707469 -0.23165458 -0.38642284 0.58751321
-5.7620001 16.365999 -0.56800002 0.34519008 -0.25132018 -0.33424985 0.54225546
-5.8049998 16.325001 -0.56699997 0.29433653 -0.29716343 -0.33103752 0.53340971
-5.8260002 16.302999 -0.56599998 0.29161721 -0.29734772 -0.3266224 0.52928108
-6.0879998 16.384001 -0.574 0.23153654 -0.30630845 -0.25959644 0.46349147
-6.1370001 16.358999 -0.574 0.23820153 -0.29354993 -0.24171826 0.44870842
-6.184 16.327 -0.57300001 0.27712667 -0.27113897 -0.25269517 0.46278545
-6.2020001 16.299 -0.57200003 0.24426195 -0.29584032 -0.25717917 0.46187285
-6.2470002 16.261999 -0.57099998 0.23327973 -0.33137044 -0.28369087 0.49467799
-6.2950001 16.233 -0.57099998 0.24102363 -0.32944611 -0.2793805 0.49465197
-6.289 16.068001 -0.56400001 0.25009784 -0.31397578 -0.27216744 0.48497921
-6.3260002 16.013 -0.56199998 -0.18666819 0.48206019 -0.68047142 0.85455739
-6.4330001 16.136 -0.56900001 0.42794946 -0.16856188 -0.32831421 0.56510538
-5.059 16.872999 -0.68099999 -0.19491902 0.52932215 -0.48544598 0.74419969
-5.0819998 16.759001 -0.676 -0.33423859 0.44304973 -0.49298793 0.74232447
-5.2069998 16.604 -0.67000002 -0.31483635 0.46262386 -0.48803413 0.74250931
-5.244 16.629999 -0.67199999 -0.28527975 0.48436439 -0.49898243 0.75164944
-5.296 16.615 -0.67199999 -0.22981131 0.51392496 -0.5476498 0.7853995
-5.3270001 16.532 -0.66900003 -0.25049153 0.50557238 -0.51387817 0.76316458
-5.4289999 16.495001 -0.66900003 0.29538047 -0.31094214 -0.37470496 0.56950718
-5.4879999 16.497999 -0.67000002 -0.30985695 0.45950001 -0.57900691 0.80149901
-5.5289998 16.448999 -0.66799998 -0.29625982 0.46597901 -0.59008473 0.80814993
-5.5560002 16.441999 -0.66799998 0.30430064 -0.30922318 -0.39598429 0.58738524
-5.6820002 16.642 -0.68000001 0.33411661 -0.289552 -0.42713535 0.61475104
-5.6620002 16.416 -0.66900003 0.38515776 -0.22764114 -0.40402782 0.60283118
-5.691 16.332001 -0.66500002 0.39603356 -0.21186009 -0.40124524 0.60226655
-5.7350001 16.294001 -0.66399997 0.33841166 -0.27670959 -0.39139932 0.58675724
-5.7779999 16.254999 -0.66299999 0.34558538 -0.27178416 -0.38344368 0.58337379
-5.8369999 16.257 -0.66399997 0.28682783 -0.32440871 -0.39756712 0.58785272
-5.8319998 16.164 -0.65899998 -0.31595412 0.45127591 -0.54352301 0.77388257
-5.9809999 16.1 -0.65899998 0.23595817 -0.33928326 -0.310709 0.51703918
-6.0279999 16.072001 -0.65799999 0.2387528 -0.33233035 -0.29924905 0.50694805
-6.0770001 16.049 -0.65799999 -0.19578344 0.4873538 -0.66448879 0.84698892
-6.1240001 16.021 -0.65799999 -0.14442272 0.51655871 -0.63415992 0.83057189
-6.1560001 16.030001 -0.65899998 -0.12585743 0.51961064 -0.64109552 0.83476871
-6.2069998 16.011 -0.65899998 -0.19269103 0.47754294 -0.68462861 0.8566758
-6.2690001 16.023001 -0.66000003 0.31726801 -0.1746245 -0.18687791 0.40752432
-6.3080001 15.975 -0.65899998 -0.039499592 0.53913736 -0.61973381 0.82237417
-6.4250002 16.120001 -0.66799998 0.39500114 -0.11743186 -0.22296509 0.46853983
-5.0209999 16.843 -0.79100001 -0.31541699 0.45846486 -0.48039544 0.73515826
-5.052 16.754 -0.787 0.37007648 -0.26288635 -0.52205122 0.69181162
-5.2090001 16.892 -0.79699999 -0.24948241 0.49440613 -0.58164334 0.80311137
-5.2470002 16.823999 -0.79400003 -0.26088256 0.49590352 -0.51628095 0.76192254
-5.2550001 16.665001 -0.78500003 -0.28971928 0.4796595 -0.45790738 0.72366405
-5.329 16.719 -0.78899997 -0.22463654 0.51509893 -0.54651415 0.78387898
-5.3860002 16.805 -0.79500002 -0.18855089 0.52517009 -0.57486403 0.801139
-5.4450002 16.631001 -0.787 -0.30750802 0.46722633 -0.54379773 0.78011382
-5.5339999 16.724001 -0.79299998 -0.28430778 0.47963652 -0.5671432 0.7953198
-5.5830002 16.695 -0.792 0.30557224 -0.31248599 -0.416177 0.60351074
-5.6339998 16.673 -0.792 0.32037476 -0.2984733 -0.40967357 0.59963214
-5.6799998 16.639 -0.79100001 0.34688249 -0.27367148 -0.41183403 0.60401225
-5.6479998 16.459999 -0.78100002 0.35249794 -0.273945 -0.43961462 0.6265474
-5.6620002 16.33 -0.77399999 0.35615158 -0.27433744 -0.50798774 0.67834836
-5.7140002 16.316 -0.77499998 0.35860807 -0.27165347 -0.50995958 0.68003976
-5.7820001 16.344999 -0.77700001 0.3452118 -0.28170466 -0.42215323 0.61379319
-5.888 16.481001 -0.787 0.3546063 -0.25858882 -0.36909217 0.57344818
-5.9520001 16.097 -0.76700002 0.25592262 -0.33100128 -0.3305276 0.5332042
-5.9980001 16.066999 -0.76700002 0.25457117 -0.20083873 -0.15644667 0.36002532
-5.0710001 16.913 -0.88999999 -0.15430456 0.51922977 -0.64755827 0.84424001
-5.3260002 16.530001 -0.87199998 -0.27763751 0.41636032 -0.25855786 0.56328559
-5.4489999 16.552999 -0.875 -0.34442958 0.43346494 -0.42710739 0.69924551
-5.4959998 16.523001 -0.875 -0.35916609 0.42660984 -0.4699657 0.72929007
-5.5409999 16.485001 -0.87300003 -0.33208054 0.44629759 -0.44847494 0.71455497
-5.592 16.464001 -0.87300003 -0.34607792 0.43465489 -0.456624 0.7191664
-5.6409998 16.438 -0.87199998 -0.37274384 0.40819585 -0.45990351 0.71907789
-5.7150002 16.485001 -0.87699997 0.37090749 -0.25757599 -0.5080232 0.67970973
-5.7080002 16.382999 -0.87099999 -0.3787418 0.39903462 -0.43791246 0.70316517
-5.7490001 16.333 -0.86799997 -0.37366915 0.40693757 -0.45318127 0.71456289
-5.7940001 16.299999 -0.86699998 -0.36690691 0.41136086 -0.44175893 0.70639181
-5.8509998 16.297001 -0.86799997 -0.36743262 0.40989548 -0.43537286 0.70183372
-5.8969998 16.263 -0.86699998 -0.33201298 0.4464505 -0.45846349 0.72092956
-6.0019999 16.157 -0.86400002 -0.28581932 0.45979989 -0.58000708 0.79342097
-5.388 16.721001 -1.007 -0.30744207 0.40309292 -0.27909237 0.57870293
-5.5359998 16.729 -1.01 -0.25023317 0.4895162 -0.6153084 0.82513463
-5.585 16.700001 -1.0089999 0.33485222 -0.27948704 -0.38897565 0.58441514
-5.6279998 16.656 -1.008 0.29508895 -0.31568953 -0.39408308 0.58484089
-5.6620002 16.583 -1.0039999 -0.36277732 0.41876602 -0.45601085 0.71757805
-5.6890001 16.492001 -0.99800003 -0.3686823 0.40879348 -0.4307237 0.69897187
-5.6869998 16.320999 -0.98699999 -0.34670445 0.42215261 -0.39498207 0.6741125
-5.7319999 16.285 -0.986 -0.3258349 0.43820375 -0.38916019 0.67054945
-5.7550001 16.268 -0.98500001 -0.32919931 0.43783867 -0.39881492 0.67759001
-5.8439999 16.355 -0.99299997 -0.37476525 0.39644015 -0.40998417 0.68242276
-5.9310002 16.436001 -1 0.36673713 -0.26944581 -0.50812048 0.68211699
-5.5 16.539 -1.0829999 0.36601463 -0.25984123 -0.49046376 0.66486007
-5.5219998 16.517 -1.082 0.38474151 -0.23571816 -0.52436048 0.69176799
-5.5710001 16.492001 -1.081 -0.37788621 0.39908373 -0.43572003 0.70136851
-5.631 16.499001 -1.0829999 0.35050428 -0.28042179 -0.49604434 0.66899151
-5.6890001 16.5 -1.085 0.37584335 -0.25074959 -0.46592402 0.6490137
-5.7119999 16.398001 -1.0779999 -0.3720437 0.40859398 -0.45232525 0.71411741
-5.7550001 16.357 -1.076 -0.33797947 0.43653947 -0.41378418 0.68993777
-5.8000002 16.322001 -1.075 -0.32340717 0.45016062 -0.4347665 0.70445633
-5.8400002 16.351999 -1.0779999 -0.32195425 0.45177555 -0.43457815 0.70470834
-5.8850002 16.316999 -1.077 -0.33474538 0.43914533 -0.42413437 0.69627082
-5.7690001 16.326 -1.188 -0.3088437 0.46373016 -0.45099401 0.71681637
