# .PCD v0.7 - Point Cloud Data file format
VERSION 0.7
FIELDS x y z normal_x normal_y normal_z curvature
SIZE 4 4 4 4 4 4 4
TYPE F F F F F F F
COUNT 1 1 1 1 1 1 1
WIDTH 685
HEIGHT 1
VIEWPOINT 0 0 0 1 0 0 0
POINTS 685
DATA ascii
2.8369999 13.189 -0.79299998 0.46520117 -0.0065036938 -0.49774504 0.68132555
2.8340001 13.379 -0.80599999 0.45910847 -0.0068263575 -0.49801564 0.67738229
2.8329999 13.589 -0.82099998 0.45681176 -0.01557798 -0.49760157 0.67566782
2.8269999 13.778 -0.83499998 0.4611156 -0.0078645023 -0.50040114 0.68050772
2.826 13.998 -0.85100001 0.46855116 0.021973891 -0.50763768 0.69117224
2.8469999 14.217 -0.86699998 0.45978007 0.10478009 -0.51100993 0.69534719
2.835 14.393 -0.87900001 0.44201317 0.14913392 -0.5212369 0.699503
2.789 14.402 -0.87900001 0.43738928 0.14093882 -0.52239841 0.69575375
2.7379999 14.379 -0.87699997 0.4415001 0.14406104 -0.52406615 0.70022941
2.7030001 14.438 -0.88099998 0.43491656 0.14265017 -0.52221477 0.69441324
2.688 14.616 -0.89399999 0.44673365 0.09167321 -0.51260728 0.68610579
2.652 14.681 -0.898 0.44915673 0.088028945 -0.50803792 0.68380797
2.875 16.072001 -1.002 0.48375696 -0.023429807 -0.48773849 0.68735623
2.8800001 16.399 -1.025 0.49993476 -0.012897957 -0.49579233 0.70420957
2.8800001 16.709 -1.048 0.49845511 -0.0084006749 -0.49559879 0.70295537
2.878 17.025 -1.071 0.50611848 -0.021377541 -0.49387246 0.70747644
2.872 17.319 -1.092 0.50230455 0.056937702 -0.54725379 0.74500906
2.8970001 17.822001 -1.1289999 0.52416801 0.080906466 -0.5164544 0.74028581
2.8729999 18.032 -1.1440001 0.50357693 0.099400699 -0.59360719 0.78475457
2.927 18.563 -1.183 -0.28371623 0.43032339 -0.40849954 0.65768152
2.9000001 18.777 -1.199 -0.20055243 0.45470861 -0.47437185 0.68702972
2.8269999 18.697001 -1.192 0.028510027 0.51881236 -0.537139 0.74732679
2.756 18.621 -1.186 0.02653804 0.52398312 -0.572074 0.77622885
2.697 18.628 -1.186 0.035329949 0.50535429 -0.61748451 0.79869783
2.6289999 18.566999 -1.1799999 -0.01902131 0.52213115 -0.6062057 0.80029255
2.572 18.583 -1.181 0.00012266636 0.50431871 -0.61076432 0.79206717
2.5469999 18.617001 -1.183 -0.0056509152 0.5053674 -0.61056423 0.79260135
2.49 18.636 -1.184 0.075711273 0.48148066 -0.59147441 0.76641881
2.4330001 18.653999 -1.1849999 0.08753597 0.47452253 -0.58402413 0.75757396
2.378 18.691 -1.187 0.12619975 0.45945561 -0.56815815 0.74150485
2.3239999 18.736 -1.1900001 0.11432514 0.46274707 -0.57531464 0.74712247
2.2709999 18.797001 -1.194 0.14720763 0.43583345 -0.56419563 0.72796816
0.48899999 14.986 -0.903 0.40759718 -0.080685593 -0.36902684 0.55572158
0.465 14.955 -0.90100002 0.41791108 -0.075906478 -0.39296663 0.57864863
0.41299999 14.783 -0.88800001 0.40594214 -0.18740363 -0.41843984 0.61237329
0.36000001 14.475 -0.86500001 0.40671653 -0.16478235 -0.48064721 0.65084046
0.31299999 14.407 -0.86000001 0.40578228 -0.16849205 -0.48237285 0.65248173
0.26699999 14.405 -0.86000001 0.40648463 -0.1795128 -0.48168114 0.65534061
0.152 12.002 -0.68300003 0.39666414 0.099083468 -0.49329898 0.6407057
0.133 11.998 -0.68300003 0.39917293 0.098283291 -0.49384949 0.64256203
0.094999999 11.976 -0.68099999 0.39917293 0.098283291 -0.49384949 0.64256203
0.057999998 12.16 -0.69400001 0.39914143 0.13372898 -0.51653439 0.66633707
-0.35100001 11.806 -0.66900003 0.031761594 0.50975698 -0.5790934 0.77214646
-0.38800001 11.813 -0.66900003 0.045040086 0.50667584 -0.57814872 0.77006817
-0.426 11.833 -0.671 0.042418867 0.50282842 -0.5837028 0.77158582
-0.463 11.822 -0.67000002 0.053273022 0.499892 -0.5746665 0.76352578
-0.73699999 12.337 -0.70899999 0.28246951 0.068531483 -0.14545104 0.32502553
-0.77200001 12.277 -0.70499998 0.30996579 0.086167492 -0.18371433 0.37047884
-0.81199998 12.297 -0.70700002 0.31486103 0.039684363 -0.18002871 0.36485976
-0.83099997 12.016 -0.68599999 0.27410296 0.36663401 -0.43812737 0.63364697
-0.84799999 11.988 -0.68400002 0.23534822 0.40369201 -0.51403141 0.6946829
3.0599999 11.737 -0.77200001 0.39342681 0.31070805 -0.51213783 0.71666539
3.0079999 11.613 -0.76099998 0.32400447 0.38580912 -0.52458328 0.72733432
2.9430001 11.664 -0.764 0.37121513 0.32518345 -0.52410001 0.71987903
2.9070001 11.675 -0.764 0.39185706 0.29253107 -0.52438754 0.71701372
2.865 11.665 -0.76200002 0.39403269 0.29651713 -0.51661742 0.71419728
2.8239999 11.655 -0.76099998 0.37982285 0.31786612 -0.51648778 0.71558636
2.8180001 11.79 -0.77100003 0.42894554 0.20418657 -0.52233791 0.70606184
2.832 11.93 -0.78200001 0.44839552 0.15246692 -0.55024505 0.72599888
2.8310001 12.094 -0.79500002 0.45885491 0.049557466 -0.50878054 0.68692172
2.8280001 12.252 -0.80800003 0.46248835 0.03211236 -0.50249225 0.68368495
2.825 12.414 -0.81999999 0.46336526 0.022810061 -0.49909747 0.68141466
2.822 12.583 -0.833 0.46298718 0.021580976 -0.4998036 0.6816352
2.8139999 12.735 -0.84500003 0.46030259 0.0039482741 -0.50246102 0.68144047
2.8139999 12.923 -0.86000001 0.45986649 0.0091336034 -0.49715996 0.67729509
2.832 13.105 -0.87400001 0.46385276 -0.01409759 -0.49693847 0.67993087
2.8280001 13.289 -0.889 0.46120223 -0.011543022 -0.49954414 0.67998904
2.8269999 13.487 -0.90399998 0.45752764 -0.014835541 -0.5010134 0.6786502
2.822 13.678 -0.91900003 0.45426834 -0.0066250991 -0.50163734 0.67678922
2.8199999 13.884 -0.935 0.46428877 -0.018076321 -0.49992087 0.682504
2.823 14.125 -0.954 0.46571752 0.07553032 -0.5101878 0.6949023
2.8180001 14.333 -0.97100002 0.43824095 0.15522675 -0.51481318 0.69367361
2.7939999 14.328 -0.97000003 0.43824095 0.15522675 -0.51481318 0.69367361
2.7479999 14.333 -0.97000003 0.43925071 0.15214358 -0.5156821 0.69427437
2.7049999 14.351 -0.97000003 0.44064352 0.14794283 -0.51535207 0.694004
2.6949999 14.549 -0.986 0.43735895 0.11973948 -0.52131742 0.69093579
2.674 14.691 -0.99699998 0.44737586 0.087402575 -0.51491272 0.68769145
2.8469999 15.912 -1.096 0.48944706 -0.015124086 -0.50134873 0.70081216
2.849 16.216999 -1.12 0.48703671 -0.029436853 -0.54430169 0.73098266
2.8800001 16.540001 -1.146 0.49238357 -0.029756114 -0.49645075 0.69985026
2.881 16.857 -1.171 0.49755293 -0.02474926 -0.4856354 0.69571054
2.881 17.183001 -1.197 0.50823981 -0.0067597535 -0.49322972 0.70825768
2.925 17.782 -1.245 0.52591944 0.0059400778 -0.47663507 0.70979404
2.869 17.787001 -1.244 0.51953459 -0.00017270725 -0.47707263 0.70534706
2.901 18.344999 -1.289 0.46006975 -0.049298935 -0.694233 0.83429855
2.826 18.631001 -1.311 0.015408037 0.48173216 -0.7043007 0.85343003
2.78 18.525 -1.302 -0.0002112072 0.49069616 -0.71010041 0.86314851
2.723 18.541 -1.302 0.047657724 0.46748561 -0.73433751 0.87181741
2.622 18.252001 -1.278 -0.28751421 0.38259596 -0.19572484 0.51706123
2.5999999 18.509001 -1.298 0.07050845 0.47910383 -0.67475158 0.83054298
2.546 18.552 -1.301 0.12536711 0.4446488 -0.67235839 0.81577891
2.4890001 18.568001 -1.302 0.13860598 0.43993166 -0.65010571 0.79711288
2.4349999 18.608 -1.3049999 0.13664255 0.4444789 -0.62868255 0.7819683
2.346 18.611 -1.304 0.18821327 0.40821555 -0.61520028 0.7619288
2.283 18.580999 -1.301 0.20214903 0.39917576 -0.60423851 0.75187081
2.243 18.736 -1.313 0.21170351 0.37713131 -0.60735285 0.74560308
1.492 15.605 -1.057 0.31297266 -0.29755321 -0.414938 0.59888512
1.433 15.508 -1.048 0.30753061 -0.30178824 -0.39045829 0.58147132
1.376 15.424 -1.041 0.26294601 -0.30364868 -0.29722232 0.49968413
1.3430001 15.32 -1.033 0.2001743 -0.34428439 -0.25236326 0.47147503
1.286 15.229 -1.025 0.10498144 -0.42228621 -0.25748497 0.50561374
1.145 15.276 -1.028 -0.21886975 0.41595018 -0.71908796 0.85907274
1.102 15.348 -1.033 -0.068797074 0.37301368 -0.80617082 0.89094532
1.048 15.267 -1.027 -0.011872195 0.46462375 -0.60389817 0.76204276
1.023 15.253 -1.025 -0.014417142 0.4631995 -0.61148864 0.76725483
0.98199999 15.368 -1.034 0.05073911 0.31713033 -0.8379432 0.89738226
0.93300003 15.359 -1.033 -0.0099856704 0.46645296 -0.39108896 0.60879278
0.88300002 15.324 -1.03 -0.075310439 0.46064842 -0.34082064 0.57795095
0.56800002 15.291 -1.026 -0.34668595 0.33414933 -0.26959026 0.55183858
0.505 14.882 -0.99400002 0.40820122 -0.11105277 -0.38333726 0.57088387
0.45899999 14.91 -0.99599999 0.41200835 -0.1072423 -0.38432172 0.57354593
0.42300001 15.27 -1.024 0.36832044 0.050127715 -0.26005247 0.45365188
0.37799999 14.505 -0.963 0.39319709 -0.18859237 -0.46122354 0.63474262
0.32800001 14.353 -0.95099998 0.38370076 -0.23225665 -0.47073603 0.65020138
0.28299999 14.334 -0.949 0.38370076 -0.23225665 -0.47073603 0.65020138
0.156 11.905 -0.75400001 0.39735287 0.058468591 -0.49743155 0.63933247
0.119 11.938 -0.75700003 0.40112892 0.064920425 -0.49456906 0.6400919
0.081 11.918 -0.755 0.4018923 0.035464723 -0.50664997 0.64766455
0.064000003 12.105 -0.76999998 0.3951526 0.13889349 -0.51162964 0.66121244
-0.36300001 11.749 -0.74199998 0.031004615 0.50942743 -0.59403908 0.78317308
-0.40000001 11.752 -0.74199998 0.018622868 0.5102908 -0.59206247 0.78184491
-0.419 11.757 -0.74299997 0.015449733 0.50544482 -0.59192687 0.7785182
-0.458 11.798 -0.74599999 0.03978499 0.49885371 -0.59129155 0.7746377
-0.49700001 11.862 -0.75099999 0.056748159 0.49138093 -0.59415829 0.77311039
-0.53100002 11.767 -0.74400002 0.063262194 0.49017939 -0.59860647 0.77627802
-0.56999999 11.811 -0.74699998 0.064394832 0.49007487 -0.586541 0.76704001
-0.611 11.887 -0.75400001 0.088350326 0.4745076 -0.59332728 0.76485324
-0.64499998 11.827 -0.74900001 0.073533148 0.48808011 -0.59024644 0.76942843
-0.66399997 11.832 -0.75 0.077856317 0.48165047 -0.59064269 0.76609892
-0.70300001 11.858 -0.75199997 0.085608862 0.47587445 -0.59887683 0.76970047
-0.759 12.172 -0.77700001 0.3243438 0.16663517 -0.24004129 0.43656155
-0.78299999 11.952 -0.75999999 0.24160615 0.38860741 -0.58235586 0.74062651
-0.81699997 11.898 -0.75599998 0.14072551 0.44877604 -0.60878849 0.76930296
3.0599999 11.665 -0.83600003 0.34595045 0.37453479 -0.51799142 0.72682405
3.0120001 11.628 -0.83200002 0.33427927 0.37798652 -0.50689769 0.71523541
2.974 11.557 -0.82499999 0.31035492 0.40574408 -0.5117802 0.72309572
2.9630001 11.667 -0.83399999 0.39377946 0.29127297 -0.49923378 0.69938302
2.9230001 11.663 -0.833 0.39723343 0.28412014 -0.51483119 0.7096265
2.885 11.664 -0.83200002 0.4035905 0.27482814 -0.51127875 0.70698071
2.842 11.646 -0.829 0.39431688 0.296123 -0.52776456 0.72229499
2.8269999 11.748 -0.838 0.41874248 0.23522177 -0.52229339 0.70955265
2.8280001 11.916 -0.852 0.44392771 0.15416628 -0.52443373 0.70418024
2.8380001 12.044 -0.86299998 0.45558816 0.070602477 -0.51624906 0.69214046
2.836 12.209 -0.87599999 0.46273747 0.030918652 -0.50027084 0.68216777
2.8340001 12.381 -0.89099997 0.4649232 0.021074001 -0.50095546 0.6837793
2.8329999 12.557 -0.90600002 0.46586141 0.025195403 -0.49803212 0.68242043
2.826 12.712 -0.91799998 0.46275589 0.0077705737 -0.49903324 0.6806156
2.825 12.901 -0.93400002 0.4569934 0.0057390928 -0.49885079 0.67655599
2.822 13.086 -0.94999999 0.46489325 -0.0056179753 -0.50007272 0.68281037
2.8399999 13.273 -0.96600002 0.46236056 -0.011077947 -0.49621531 0.67832857
2.8369999 13.466 -0.98199999 0.45759529 -0.013220523 -0.49616438 0.67509061
2.832 13.658 -0.99800003 0.45469543 -0.0064014569 -0.4963659 0.67317754
2.829 13.864 -1.015 0.46178657 -0.015520057 -0.49529794 0.6773535
2.8310001 14.101 -1.035 0.46463811 0.082106903 -0.50459146 0.69082755
2.8269999 14.318 -1.054 0.43812528 0.15739821 -0.50787216 0.68895721
2.7839999 14.334 -1.054 0.4391669 0.15310235 -0.50661451 0.68772537
2.7379999 14.339 -1.054 0.43696505 0.15918276 -0.51185805 0.69157517
2.7090001 14.312 -1.051 0.44000936 0.15042908 -0.50906086 0.68947816
2.7 14.514 -1.068 0.43204027 0.13881052 -0.51558441 0.68684381
2.855 15.629 -1.165 0.28732792 -0.28428853 -0.19601983 0.44922274
2.858 15.93 -1.1900001 0.47544459 0.044169508 -0.56895256 0.74276882
2.859 16.231001 -1.216 0.47747812 -0.0034281733 -0.60658133 0.77197021
2.8599999 16.549 -1.243 0.48477083 -0.022674095 -0.50979388 0.70385128
2.858 16.851999 -1.268 0.49682194 -0.023183554 -0.50992721 0.71231681
2.8900001 17.209 -1.299 0.49619552 0.074349098 -0.48851532 0.70027494
2.8929999 17.566 -1.329 0.49559188 -0.065820307 -0.48981613 0.69990247
2.47 15.591 -1.156 0.054703884 -0.27830154 -0.082316905 0.29533088
2.4030001 15.483 -1.146 0.2934258 -0.23704083 -0.22170296 0.43753773
2.3469999 15.439 -1.141 0.28982556 -0.23442429 -0.22132125 0.43351668
2.4230001 16.294001 -1.215 0.37919319 0.097062774 -0.29150584 0.48804128
2.563 17.434 -1.314 0.099271178 0.45694607 -0.37797585 0.60126555
2.506 17.431999 -1.313 0.081508279 0.44271442 -0.33315915 0.56003094
2.5869999 18.412001 -1.397 0.10482961 0.47797444 -0.6426453 0.80773872
2.5320001 18.440001 -1.399 0.14082325 0.45731252 -0.65601015 0.81198227
2.474 18.445999 -1.399 0.18972495 0.43124506 -0.61799747 0.77710277
2.418 18.476 -1.401 0.23451236 0.39273411 -0.62063456 0.77098858
2.362 18.497 -1.402 0.2318656 0.38657853 -0.61809063 0.76501024
2.336 18.521999 -1.404 0.19698611 0.39739496 -0.6363076 0.77563757
2.289 18.625999 -1.4119999 0.17730059 0.39354038 -0.67114687 0.79796469
2.2409999 18.721001 -1.42 0.20896626 0.36068243 -0.66484773 0.78471732
1.505 15.652 -1.151 0.33172089 -0.26955786 -0.42628205 0.60366929
1.447 15.565 -1.143 0.32014036 -0.29362959 -0.42936003 0.61078495
1.3890001 15.464 -1.1339999 0.30229014 -0.30020601 -0.39286762 0.57952392
1.3329999 15.381 -1.126 0.22094324 -0.37140706 -0.33577487 0.54726946
1.301 15.286 -1.118 0.17575517 -0.40517241 -0.32690457 0.54947352
1.2460001 15.205 -1.11 -0.22522613 0.43703401 -0.62314695 0.79374909
1.2309999 15.638 -1.147 -0.1729503 0.40547949 -0.23607489 0.50005674
1.165 15.407 -1.127 -0.23947474 0.40619034 -0.72013736 0.86077672
1.102 15.206 -1.11 -0.10186506 0.47014689 -0.58594364 0.75811911
1.057 15.247 -1.113 -0.08040233 0.47528628 -0.58209866 0.75577801
1.007 15.224 -1.1109999 -0.017629154 0.4732939 -0.57327992 0.74361801
0.99000001 15.327 -1.119 -0.027037732 0.47401595 -0.57403129 0.74493897
0.94300002 15.346 -1.1210001 -0.025001124 0.48049596 -0.50352496 0.69644725
0.89200002 15.303 -1.117 -0.0010747612 0.47607729 -0.54101866 0.72066075
0.625 15.259 -1.112 -0.32891351 0.348461 -0.27199528 0.55099058
0.56699997 14.998 -1.089 0.38501018 -0.1599032 -0.35365212 0.5466916
0.51499999 14.832 -1.075 0.39129978 -0.17516223 -0.38632357 0.57709897
0.46799999 14.838 -1.075 0.39277923 -0.1750617 -0.38655788 0.57822931
0.44400001 15.678 -1.147 -0.082056448 0.48449808 -0.55863631 0.74400681
0.368 14.536 -1.049 0.39131412 -0.19423607 -0.46095973 0.63508922
0.31799999 14.343 -1.0319999 0.37481573 -0.25120917 -0.46193567 0.64573789
0.29499999 14.312 -1.03 0.37481573 -0.25120917 -0.46193567 0.64573789
0.138 11.939 -0.82499999 0.39778453 0.048842818 -0.49156708 0.63423681
0.1 11.919 -0.824 0.40200239 0.0463631 -0.49260095 0.63750386
0.064000003 12.097 -0.83899999 0.39059186 0.15220708 -0.49886778 0.65161186
0.044 11.822 -0.815 0.39833057 0.016706908 -0.49084213 0.63235462
-0.34299999 11.726 -0.80699998 -0.021030646 0.51857644 -0.59456056 0.7892186
-0.38 11.732 -0.80800003 0.030990638 0.50785857 -0.58534586 0.77557111
-0.417 11.741 -0.80900002 0.038387544 0.50126088 -0.58617425 0.77222812
-0.454 11.742 -0.80900002 0.049485154 0.49971905 -0.58794057 0.77320248
-0.47299999 11.751 -0.81 0.049485154 0.49971905 -0.58794057 0.77320248
-0.51099998 11.773 -0.81199998 0.050098889 0.49560493 -0.58256418 0.76649541
-0.54799998 11.768 -0.81199998 0.070891276 0.48998934 -0.58833295 0.76892835
-0.58600003 11.78 -0.81300002 0.058402218 0.49314246 -0.58891749 0.77034026
-0.62400001 11.8 -0.815 0.080356911 0.48407483 -0.59784806 0.77343905
-0.66100001 11.806 -0.815 0.073277816 0.48641396 -0.59825414 0.77451676
-0.699 11.814 -0.81599998 0.078239344 0.48490587 -0.5985927 0.77431798
-0.71899998 11.832 -0.81800002 0.081806034 0.47849619 -0.60225189 0.77353615
-0.75599998 11.832 -0.81800002 0.082653552 0.48228031 -0.58302683 0.76114792
-0.796 11.865 -0.82099998 0.10096787 0.47310621 -0.59573895 0.76741707
-0.83200002 11.847 -0.81999999 0.096857078 0.47430703 -0.58277154 0.75760877
3.049 11.598 -0.90100002 0.2737872 0.43380582 -0.52716684 0.73556226
3.0079999 11.592 -0.89999998 0.32536659 0.38796008 -0.52128708 0.72671634
2.9389999 11.624 -0.90100002 0.34202686 0.36599827 -0.51378411 0.71757317
2.9189999 11.623 -0.90100002 0.3533712 0.35243392 -0.50977147 0.71340579
2.8829999 11.632 -0.90100002 0.35983756 0.34732759 -0.50233138 0.7088415
2.842 11.624 -0.89899999 0.36417091 0.34237334 -0.50947642 0.71372694
2.8329999 11.747 -0.91000003 0.42326701 0.22926846 -0.50220847 0.69565248
2.8299999 11.895 -0.92299998 0.44452035 0.16481052 -0.50646061 0.69373137
2.825 12.044 -0.93599999 0.46048054 0.040617529 -0.49352285 0.67620772
2.825 12.213 -0.95099998 0.46316266 0.032579251 -0.49547151 0.67902362
2.8239999 12.385 -0.96700001 0.46838957 0.022878161 -0.49871644 0.68456578
2.8380001 12.533 -0.98000002 0.46519369 0.024637161 -0.49636051 0.68072456
2.8329999 12.698 -0.995 0.4638989 0.010468293 -0.49571198 0.67900085
2.832 12.88 -1.011 0.46048686 0.012043602 -0.49541625 0.67648387
2.8299999 13.065 -1.028 0.46509245 0.0026010482 -0.49745074 0.68101025
2.8310001 13.271 -1.046 0.46236616 -0.01152965 -0.4980118 0.67965513
2.8269999 13.459 -1.063 0.45134693 -0.0021454736 -0.4919737 0.66765016
2.825 13.661 -1.081 0.45529923 -0.0066520125 -0.49349988 0.67147881
2.8440001 13.858 -1.099 0.46095902 -0.015131546 -0.49394324 0.67578995
2.8440001 14.082 -1.119 0.46851751 0.05664327 -0.51289785 0.69698012
2.839 14.284 -1.138 0.44489869 0.13623771 -0.50293082 0.68515325
2.7969999 14.308 -1.1390001 0.44248584 0.14491557 -0.50283062 0.68529767
2.7490001 14.304 -1.138 0.44126245 0.14690369 -0.50112075 0.68367773
2.7030001 14.306 -1.137 0.43105119 0.16319862 -0.50071812 0.68055683
2.6919999 14.493 -1.154 0.43542013 0.14238445 -0.50734317 0.68356502
2.8729999 15.597 -1.257 0.49199334 -0.015699668 -0.50211626 0.70315337
2.8740001 15.875 -1.2819999 0.48173395 -0.019368362 -0.50102323 0.69531792
2.875 16.17 -1.309 0.48104358 0.013054231 -0.5249266 0.71212447
2.8770001 16.481001 -1.337 0.48450547 -0.04238829 -0.54416847 0.7298367
2.878 16.792 -1.365 0.48788545 -0.021107759 -0.51336151 0.70853215
2.8829999 17.141001 -1.397 0.48129764 0.0011759097 -0.58640021 0.7586264
2.8629999 17.351999 -1.415 0.33013213 0.13494676 -0.84579623 0.91791564
2.898 17.733999 -1.451 0.48702747 -0.026478868 -0.48803085 0.68997896
2.473 15.464 -1.238 0.32117045 -0.23223862 -0.25317439 0.47030044
2.527 16.115 -1.298 0.1718082 0.43444613 -0.44266284 0.64359295
2.5050001 16.312 -1.316 -0.034058668 0.46554098 -0.34498012 0.58043063
2.5079999 17.035 -1.382 -0.2327358 0.44016054 -0.35656682 0.6124109
2.4460001 16.983 -1.376 0.39918542 -0.15796266 -0.39627326 0.58423769
2.6159999 18.353001 -1.503 0.013148941 0.50219303 -0.64205623 0.8152343
2.566 18.417999 -1.508 0.052279249 0.49345905 -0.65293151 0.82009417
2.5079999 18.424 -1.508 0.15270865 0.45274869 -0.62873721 0.78969097
2.4489999 18.42 -1.507 0.17325467 0.43600672 -0.63762891 0.79163736
2.392 18.434 -1.507 0.23919427 0.38695097 -0.6239289 0.77216077
2.3440001 18.52 -1.515 0.20184809 0.39436829 -0.63361877 0.77313757
2.293 18.583 -1.52 0.20686716 0.3814182 -0.6342442 0.76846576
2.2750001 18.683001 -1.529 0.22328025 0.36849478 -0.63442796 0.7669037
1.528 15.644 -1.244 0.32734194 -0.2764459 -0.43779758 0.61256987
1.472 15.577 -1.237 0.31465086 -0.30683562 -0.43234682 0.61650389
1.414 15.489 -1.229 0.31270087 -0.29231721 -0.41582063 0.59677297
1.358 15.406 -1.22 0.23828442 -0.37499267 -0.4006761 0.59828115
1.302 15.323 -1.212 0.18278468 -0.41010949 -0.36922354 0.58131409
1.2460001 15.237 -1.204 -0.23971668 0.45203972 -0.58558685 0.77763486
1.229 15.327 -1.212 -0.26971975 0.45113525 -0.57559496 0.77947503
1.1670001 15.15 -1.196 -0.13160525 0.46336702 -0.56043249 0.7389949
1.113 15.066 -1.188 -0.037263006 0.46619645 -0.56125909 0.73057473
1.068 15.099 -1.1900001 -0.035451312 0.46863696 -0.54174757 0.71719444
1.031 15.263 -1.205 0.006032303 0.47749907 -0.5169223 0.7037403
0.98900002 15.346 -1.212 -0.046721276 0.48296991 -0.50362986 0.69934672
0.94 15.337 -1.211 0.0016960725 0.47629651 -0.48038772 0.67648625
0.90700001 15.606 -1.2359999 0.3636542 0.032769602 -0.70299631 0.7921629
0.87900001 15.548 -1.23 -0.40695605 0.23686321 -0.20886201 0.51511234
0.829 15.525 -1.228 -0.0062232688 0.42958525 -0.28361827 0.51480246
0.77999997 15.514 -1.227 0.085894093 0.43384755 -0.34371993 0.56012934
0.67000002 15.244 -1.201 -0.3263309 0.40181202 -0.38711369 0.64637589
0.62099999 15.232 -1.2 -0.39456767 0.28016305 -0.25396156 0.54650843
0.58399999 14.902 -1.17 0.38370359 -0.16164455 -0.37788039 0.56227309
0.54100001 15.016 -1.1799999 0.37679392 -0.16719477 -0.3351506 0.53127551
0.46599999 15.624 -1.2359999 -0.0081540868 0.47861469 -0.57038987 0.74463624
0.384 14.491 -1.131 0.38843697 -0.20437683 -0.47352844 0.64566427
0.33399999 14.316 -1.115 0.38185903 -0.23731935 -0.47863695 0.65668112
0.289 14.315 -1.115 0.38185903 -0.23731935 -0.47863695 0.65668112
0.18000001 11.885 -0.89200002 0.39145637 0.055017382 -0.50105745 0.63821906
0.14300001 11.91 -0.89399999 0.39722297 0.057301346 -0.50458705 0.64473063
0.105 11.906 -0.89300001 0.39986891 0.056443583 -0.50519323 0.64676213
0.07 12.159 -0.917 0.39859682 0.12559737 -0.48125294 0.63738412
0.029999999 11.857 -0.889 0.40032688 0.016835589 -0.4873893 0.6309464
-0.759 12.279 -0.93000001 0.33221239 -0.16836129 -0.73641324 0.82523638
-0.79900002 12.299 -0.93199998 -0.341629 0.28036669 -0.18350774 0.47852999
-0.81900001 12.306 -0.93300003 -0.13294679 0.42925125 -0.25341982 0.51590025
3.0350001 11.595 -0.977 0.27636424 0.43558827 -0.51396906 0.72820228
2.9879999 11.562 -0.97299999 0.2628119 0.44674364 -0.51443762 0.73027122
2.9489999 11.561 -0.972 0.29816431 0.41373879 -0.51476967 0.72461683
2.9300001 11.64 -0.97899997 0.36654159 0.33525687 -0.50612098 0.70916033
2.8929999 11.649 -0.97899997 0.36329624 0.33964103 -0.50464517 0.70852447
2.852 11.637 -0.977 0.37433261 0.32634842 -0.5022524 0.70631838
2.8069999 11.611 -0.97299999 0.37148604 0.33275053 -0.49813724 0.70488685
2.8239999 11.764 -0.98799998 0.42634246 0.22120638 -0.4983505 0.69213682
2.819 11.911 -1.002 0.44481587 0.14873782 -0.4864502 0.67573506
2.8150001 12.065 -1.017 0.45872474 0.036662064 -0.49088609 0.6728608
2.8169999 12.249 -1.034 0.46710685 0.02775236 -0.49155277 0.67866272
2.8080001 12.389 -1.048 0.46797326 0.025170248 -0.49488702 0.68157589
2.806 12.561 -1.064 0.46579021 0.023126697 -0.48971477 0.67625135
2.8039999 12.745 -1.082 0.45824766 0.014318121 -0.48499066 0.66739184
2.823 12.927 -1.099 0.45804715 0.0062830811 -0.48694208 0.66855013
2.819 13.111 -1.117 0.45746309 -0.0085143922 -0.49091464 0.67107534
2.8180001 13.308 -1.136 0.45913836 -0.012225694 -0.49696648 0.67670763
2.813 13.498 -1.154 0.45136204 -0.0064013414 -0.49649853 0.67102867
2.8099999 13.7 -1.173 0.45425546 -0.015739128 -0.49573115 0.67256606
2.8080001 13.914 -1.194 0.45788407 -0.00057010353 -0.49113339 0.67146868
2.8139999 14.177 -1.219 0.45484248 0.1067718 -0.50041288 0.68461299
2.793 14.307 -1.232 0.44278118 0.14403716 -0.50185466 0.68458742
2.7709999 14.315 -1.232 0.4347046 0.16682439 -0.50323784 0.68559957
2.723 14.306 -1.23 0.42867702 0.1695428 -0.49701157 0.67788589
2.6860001 14.356 -1.234 0.39374781 0.21297528 -0.50383735 0.67397916
2.684 14.605 -1.258 0.41558656 0.18183279 -0.53952217 0.70488262
2.8369999 15.722 -1.369 0.4776426 -0.0094813872 -0.49707955 0.68943489
2.8369999 16.014999 -1.397 0.48627332 0.0031942651 -0.44936851 0.66212082
2.8399999 16.334 -1.428 0.47142833 -0.053206038 -0.50060111 0.68969345
2.8659999 16.636999 -1.4579999 0.47613668 -0.016506154 -0.50007343 0.69068956
2.8659999 16.962 -1.489 0.45546153 0.065999836 -0.63569283 0.78479719
2.872 17.332001 -1.525 0.3336094 0.17347182 -0.78772002 0.87286341
2.45 15.057 -1.298 0.40965611 -0.014878046 -0.33992466 0.53253007
2.3699999 14.859 -1.278 0.35202897 -0.078554325 -0.25343525 0.44082263
2.3770001 15.208 -1.312 0.40529245 -0.04184911 -0.33061689 0.52471024
2.487 16.259001 -1.415 -0.070637897 0.48514435 -0.3767933 0.61832672
2.7850001 18.427999 -1.63 -0.14155313 0.52472645 -0.59339184 0.804667
2.53 17.472 -1.534 0.38990784 0.14724356 -0.60397911 0.73382527
2.5450001 18.398001 -1.624 0.15813746 0.46043995 -0.58819723 0.76353675
2.484 18.382999 -1.622 0.22033587 0.41562644 -0.59055638 0.75501662
2.4260001 18.392 -1.622 0.16712829 0.45491111 -0.58998889 0.76352006
2.3989999 18.412001 -1.624 0.16712829 0.45491111 -0.58998889 0.76352006
2.346 18.452999 -1.627 0.21566135 0.40547118 -0.58018893 0.73995668
2.2950001 18.518999 -1.633 0.21521351 0.39437422 -0.56765413 0.72393304
2.253 18.660999 -1.646 0.26760021 0.33953962 -0.55575687 0.70410419
1.5190001 15.634 -1.3430001 0.34359241 -0.25289825 -0.4591842 0.62678814
1.4630001 15.563 -1.335 0.32852507 -0.28669408 -0.43731546 0.61754924
1.406 15.48 -1.327 0.30071265 -0.31715158 -0.45529222 0.63111347
1.373 15.379 -1.316 0.23745796 -0.37181479 -0.40195784 0.59682715
1.318 15.31 -1.309 -0.37920165 0.39482439 -0.56233686 0.78479487
1.2640001 15.235 -1.301 -0.24316049 0.45908687 -0.52481794 0.73845899
1.21 15.167 -1.294 -0.18756858 0.47113353 -0.53276747 0.73552024
1.164 15.187 -1.296 -0.12043622 0.48099566 -0.5189842 0.71777874
1.119 15.224 -1.299 -0.097657457 0.4881455 -0.50522977 0.70928144
1.072 15.242 -1.301 -0.028725602 0.48386368 -0.51491928 0.7071712
1.05 15.283 -1.304 -0.0057850406 0.47948098 -0.52148187 0.70843405
1.003 15.294 -1.3049999 -0.040686246 0.48413718 -0.52562821 0.71577179
0.95700002 15.333 -1.309 -0.032868933 0.48115706 -0.51260847 0.70381808
0.91000003 15.352 -1.3099999 -0.0024856925 0.47644472 -0.51865608 0.70427966
0.866 15.44 -1.319 -0.012246616 0.47216931 -0.40406895 0.6215831
0.80699998 15.236 -1.298 -0.22340119 0.46716255 -0.52426577 0.73688769
0.76999998 15.459 -1.3200001 0.07034684 0.43340126 -0.32280141 0.54496431
0.73699999 15.274 -1.302 -0.23582855 0.45755842 -0.50107592 0.71836752
0.68800002 15.264 -1.301 0.21431965 -0.39980859 -0.36612314 0.58294594
0.63800001 15.194 -1.293 0.28456402 -0.29749992 -0.29993385 0.50935572
0.57800001 14.89 -1.263 0.38996771 -0.14805965 -0.38296023 0.56626409
0.537 15.039 -1.278 0.38156432 -0.17775317 -0.35970378 0.55369151
0.48199999 14.784 -1.253 0.37337154 -0.21337928 -0.38941208 0.58015412
0.45699999 15.561 -1.329 0.26760492 0.33934084 -0.50616968 0.66556168
0.40400001 15.433 -1.316 0.33480078 0.24681829 -0.39239526 0.57182592
0.35600001 14.365 -1.211 0.37848455 -0.23016402 -0.47836244 0.65196371
0.30899999 14.309 -1.206 0.37895545 -0.22908179 -0.47879869 0.65217626
0.264 14.304 -1.205 0.37895545 -0.22908179 -0.47879869 0.65217626
0.112 11.889 -0.96799999 0.40002114 0.057339441 -0.48016289 0.62758356
0.075000003 11.868 -0.96499997 0.40002114 0.057339441 -0.48016289 0.62758356
0.057 12.071 -0.98500001 0.40234023 0.089231841 -0.49182746 0.64166522
0.018999999 11.645 -0.94300002 -0.30874458 0.49830455 -0.52695429 0.7882331
-0.368 11.711 -0.95099998 0.0097645968 0.51085389 -0.58270192 0.77498943
-0.40200001 11.65 -0.94499999 0.0087337643 0.51464558 -0.58231384 0.77719098
-0.421 11.651 -0.94499999 0.024264731 0.51141214 -0.58176714 0.77497363
-0.46200001 11.757 -0.95499998 0.031557158 0.50387567 -0.58147788 0.77006692
-0.50099999 11.811 -0.96100003 0.043608248 0.4962205 -0.59309286 0.77452928
-0.53399998 11.73 -0.95300001 0.042238973 0.50075448 -0.59253675 0.77694207
-0.56999999 11.707 -0.95099998 0.044478551 0.49907207 -0.59300429 0.77634102
-0.60799998 11.721 -0.95200002 0.045225225 0.4964003 -0.59366363 0.77517426
-0.64499998 11.735 -0.954 0.050342016 0.49582487 -0.58717847 0.77016568
-0.66500002 11.755 -0.95599997 0.050342016 0.49582487 -0.58717847 0.77016568
-0.70200002 11.749 -0.95599997 0.057104357 0.48967859 -0.59784728 0.77489829
-0.74000001 11.771 -0.958 0.064700983 0.47753152 -0.63460177 0.7968325
-0.78200001 11.832 -0.96399999 0.080088794 0.45122206 -0.67501277 0.81587857
-0.81599998 11.788 -0.95999998 0.065522745 0.46650678 -0.64827853 0.80136561
-0.85299999 11.793 -0.96100003 0.080479726 0.45892686 -0.63295603 0.7859543
3.0680001 11.636 -1.056 0.32865131 0.38362211 -0.49920246 0.71019763
3.053 11.726 -1.0650001 0.3689304 0.33538339 -0.4957535 0.70310968
2.9630001 11.53 -1.0420001 0.18289822 0.49654284 -0.51037228 0.73517781
2.9630001 11.604 -1.05 0.35672787 0.34889638 -0.50626349 0.71083486
2.934 11.646 -1.053 0.36597976 0.33532208 -0.50513172 0.70819497
2.8970001 11.651 -1.053 0.37570575 0.31849334 -0.49848336 0.7007699
2.8559999 11.645 -1.051 0.38008931 0.31380925 -0.496746 0.69978619
2.816 11.636 -1.049 0.38154519 0.31697857 -0.49989146 0.70423263
2.816 11.8 -1.066 0.43006045 0.21159698 -0.48758689 0.68371505
2.8080001 11.929 -1.079 0.44675872 0.12568887 -0.46804354 0.6591326
2.8080001 12.1 -1.096 0.45873111 0.035875529 -0.49117282 0.67303199
2.826 12.263 -1.113 0.46875921 0.033257019 -0.48674297 0.67657959
2.822 12.419 -1.1289999 0.46800172 0.020491691 -0.48656902 0.67542207
2.816 12.576 -1.145 0.46494585 0.024579374 -0.48236424 0.67041332
2.8180001 12.771 -1.165 0.46190172 0.021293646 -0.48039147 0.66677028
2.812 12.935 -1.181 0.45770809 0.011155826 -0.47881308 0.66248256
2.812 13.132 -1.202 0.45715088 -0.00089024939 -0.48776531 0.66850781
2.8080001 13.314 -1.22 0.45356143 -0.0062098429 -0.48781246 0.66612124
2.8239999 13.496 -1.239 0.45472237 -0.0025156036 -0.4873347 0.66653872
2.825 13.713 -1.261 0.45768386 -0.0098549901 -0.48899704 0.66984308
2.8210001 13.911 -1.281 0.45848879 -0.014401665 -0.48571199 0.66808349
2.825 14.16 -1.307 0.45265049 0.097214788 -0.49112794 0.67494434
2.8080001 14.307 -1.322 0.44226766 0.15110929 -0.48716894 0.67510611
2.7639999 14.318 -1.322 0.43364432 0.16927426 -0.48741466 0.67399871
2.7160001 14.313 -1.3200001 0.39102829 0.22171284 -0.48933533 0.66446126
2.697 14.334 -1.322 0.39460999 0.21137834 -0.49407819 0.66671669
2.6919999 14.558 -1.345 0.39876321 0.21659072 -0.50331998 0.67768329
2.849 15.672 -1.462 0.46903268 -0.11285689 -0.51663923 0.7068553
2.849 15.957 -1.492 0.47629821 -0.037507605 -0.52170008 0.7074163
2.8540001 16.273001 -1.524 0.47421139 -0.028173327 -0.47166395 0.66943043
2.855 16.582001 -1.556 0.47215557 -0.0756042 -0.47408167 0.6733501
2.8510001 16.872999 -1.586 0.41087553 0.14945896 -0.63389981 0.77005559
2.8789999 17.201 -1.62 0.32803643 0.13006382 -0.80488646 0.87884396
2.4489999 14.941 -1.38 0.40320349 -0.018334502 -0.34315419 0.52977729
2.454 15.271 -1.414 0.41429335 -0.024183368 -0.34405774 0.53907281
2.576 16.343 -1.527 0.20576322 -0.3451634 -0.24318212 0.46969545
2.8570001 18.48 -1.752 -0.21313952 0.5098331 -0.52646452 0.76323199
2.4920001 16.834999 -1.576 0.22473946 0.2851904 -0.2135644 0.42124951
2.572 17.556999 -1.652 0.37623957 0.18768516 -0.41022483 0.5874235
2.552 17.809 -1.678 0.43370721 0.00038871728 -0.49947271 0.66149455
2.5450001 18.167999 -1.715 0.38874537 0.22909325 -0.48565435 0.66292292
2.5120001 18.347 -1.733 0.13384804 0.47901839 -0.55388933 0.74442416
2.457 18.372999 -1.734 0.20072517 0.4402121 -0.54768342 0.73077655
2.401 18.396 -1.7359999 0.21564046 0.42864344 -0.54526848 0.72632897
2.346 18.427 -1.739 0.22050889 0.41878888 -0.53008628 0.71063334
2.3269999 18.506001 -1.747 0.20707358 0.40974396 -0.5270384 0.69895566
1.5369999 15.61 -1.437 0.34682354 -0.25863448 -0.4917028 0.65494275
1.482 15.554 -1.431 0.34379798 -0.25215268 -0.4555881 0.62396997
1.424 15.465 -1.421 0.30405489 -0.31114224 -0.42701328 0.60958934
1.368 15.387 -1.4119999 0.23300442 -0.37685081 -0.40603259 0.60097426
1.311 15.292 -1.402 -0.31567264 0.43394032 -0.55090523 0.76905787
1.281 15.228 -1.395 -0.26956263 0.45400774 -0.53125316 0.74901068
1.229 15.177 -1.3890001 -0.17302454 0.478488 -0.52424955 0.73056543
1.182 15.192 -1.39 -0.10429278 0.48752296 -0.5202319 0.72055316
1.135 15.208 -1.392 -0.10196602 0.48746902 -0.52229208 0.72167319
1.09 15.251 -1.396 -0.11069988 0.48798162 -0.54625028 0.74079007
1.045 15.286 -1.399 -0.042912934 0.48252195 -0.56744301 0.74609685
0.99800003 15.311 -1.401 -0.054308508 0.48088676 -0.58280009 0.75753379
0.95099998 15.332 -1.403 -0.027137868 0.47967431 -0.57769263 0.75136721
0.926 15.318 -1.401 -0.012932591 0.4762924 -0.58070856 0.75116187
0.778 15.258 -1.3940001 -0.25782964 0.42436367 -0.66508472 0.82999897
0.72899997 15.239 -1.392 -0.29946887 0.39391771 -0.68480182 0.84487063
0.699 15.625 -1.432 0.094604865 0.43639275 -0.33856773 0.56037205
0.62800002 15.13 -1.38 0.34425461 -0.19634798 -0.299932 0.49701408
0.59200001 14.839 -1.35 0.39201587 -0.12367347 -0.369699 0.55285525
0.54799998 14.896 -1.3559999 0.38700482 -0.14379813 -0.36973253 0.55421364
0.523 15.506 -1.419 0.32755181 0.25416371 -0.57630354 0.70994025
0.47600001 15.563 -1.425 0.10536016 0.44814819 -0.47776026 0.66346997
0.42699999 15.557 -1.424 -0.032691739 0.47349826 -0.55222362 0.72816223
0.34799999 14.395 -1.303 0.38083994 -0.22462086 -0.47979796 0.65245664
0.301 14.316 -1.294 0.38111809 -0.22393748 -0.47972834 0.65233296
0.278 14.319 -1.295 0.38111809 -0.22393748 -0.47972834 0.65233296
0.152 11.89 -1.041 0.39631799 0.052506313 -0.47165993 0.61829436
0.115 11.906 -1.043 0.39631799 0.052506313 -0.47165993 0.61829436
0.077 11.874 -1.039 0.40008911 0.05086359 -0.47255966 0.62126565
0.041000001 12.034 -1.056 0.40165949 0.096362382 -0.48955992 0.64053488
-0.366 11.71 -1.023 -0.028563648 0.51782131 -0.577802 0.77640837
-0.40200001 11.683 -1.02 0.02262339 0.50689024 -0.59801233 0.7842629
-0.43799999 11.675 -1.0190001 0.030342989 0.50575042 -0.59492177 0.78143209
-0.479 11.761 -1.028 0.029945657 0.50078714 -0.59842235 0.78089297
-0.49399999 11.693 -1.021 0.028421544 0.50320476 -0.59725654 0.78149736
-0.53299999 11.729 -1.025 0.028271466 0.50301802 -0.5982573 0.78213698
-0.56900001 11.72 -1.024 0.034824021 0.50271863 -0.59230137 0.77766293
-0.60699999 11.74 -1.027 0.04595539 0.49429855 -0.6022585 0.78048593
-0.64399999 11.74 -1.027 0.051107809 0.49344006 -0.59988201 0.77843016
-0.68199998 11.763 -1.03 0.048280217 0.49143252 -0.60124862 0.77803391
-0.72000003 11.777 -1.031 0.045400016 0.49135134 -0.60495394 0.78067702
-0.741 11.81 -1.035 0.054765835 0.4868404 -0.61251605 0.78433973
-0.78200001 11.873 -1.0420001 0.065498985 0.46911475 -0.64425319 0.79963797
-0.81300002 11.779 -1.0319999 0.047164619 0.4794932 -0.61342919 0.78002155
-0.85299999 11.812 -1.036 0.07252907 0.46756044 -0.62298036 0.7822901
-0.88999999 11.817 -1.0369999 0.081449553 0.4611001 -0.6170342 0.77458286
-0.93099999 11.864 -1.0420001 0.14735368 0.42019945 -0.64324808 0.78233546
-0.96600002 11.827 -1.038 0.13900906 0.4332568 -0.60796326 0.7593776
-0.991 11.901 -1.046 0.15307286 0.41252807 -0.64602524 0.78163886
-1.146 12.375 -1.097 -0.2912586 0.094884887 -0.046985656 0.30990702
3.082 11.758 -1.148 0.37745833 0.32855904 -0.47617012 0.69077045
3.0090001 11.627 -1.132 0.35874945 0.34534287 -0.47303975 0.68682563
2.9579999 11.58 -1.126 0.35039279 0.35628965 -0.47543311 0.6897493
2.948 11.694 -1.138 0.3704145 0.3184512 -0.47447622 0.68098879
2.921 11.662 -1.1339999 0.37148267 0.3242189 -0.48183286 0.68940568
2.885 11.677 -1.1339999 0.37394106 0.31565353 -0.47434923 0.68152499
2.8410001 11.653 -1.13 0.37737682 0.31571805 -0.47077996 0.68097353
2.8269999 11.756 -1.141 0.42692298 0.21792676 -0.47129172 0.67221367
2.825 11.914 -1.158 0.44332471 0.14178345 -0.46561593 0.65835971
2.825 12.088 -1.177 0.45858139 0.035721239 -0.48349285 0.6673367
2.826 12.267 -1.196 0.46839553 0.032835737 -0.48262078 0.6733464
2.8410001 12.421 -1.2130001 0.46736118 0.021953203 -0.48208728 0.67180097
2.8380001 12.591 -1.232 0.46370274 0.010891271 -0.48378867 0.67021662
2.835 12.764 -1.25 0.46332663 0.020754553 -0.48246354 0.66923344
2.832 12.944 -1.27 0.45926958 0.015169289 -0.48451498 0.66776752
2.829 13.132 -1.29 0.45723763 -0.0073350044 -0.4881604 0.66889507
2.8269999 13.328 -1.311 0.44696331 -0.0038365687 -0.49289781 0.6653865
2.819 13.502 -1.33 0.45479697 0.0011602812 -0.49013603 0.66863662
2.842 13.718 -1.354 0.45811668 -0.0080809807 -0.49027115 0.67104548
2.836 13.911 -1.375 0.4585245 -0.016250059 -0.48770508 0.66960067
2.8410001 14.165 -1.403 0.44759336 0.084087707 -0.48995125 0.6689266
2.826 14.326 -1.42 0.43387213 0.17102754 -0.48495817 0.67281491
2.779 14.327 -1.419 0.42744786 0.16795452 -0.48443341 0.66752982
2.7309999 14.32 -1.4170001 0.39606985 0.22397852 -0.48399249 0.66429394
2.6949999 14.377 -1.423 0.39025402 0.2298505 -0.48524261 0.66376942
2.7049999 14.558 -1.442 0.36347985 0.25433692 -0.4846682 0.65704501
2.8610001 15.681 -1.568 0.44665664 -0.16385375 -0.55907804 0.73411065
2.8629999 15.978 -1.601 0.46203342 -0.039274231 -0.57414484 0.73801064
2.8640001 16.284 -1.6339999 0.46516907 -0.00041154167 -0.46707442 0.65919721
2.8640001 16.587 -1.6670001 0.45622987 -0.016230293 -0.47530058 0.65902942
2.8710001 16.952999 -1.707 0.36161327 0.21717955 -0.70076382 0.81792486
2.4979999 15.02 -1.489 0.41322607 -0.0064177886 -0.34486604 0.53826535
2.3929999 14.52 -1.432 0.32398212 0.24874981 -0.41646051 0.58333546
2.4560001 15.206 -1.5089999 0.41715825 -0.034257658 -0.36701232 0.55668002
2.5780001 16.302 -1.631 0.10589249 0.38953078 -0.23911238 0.46917179
2.6589999 17.174 -1.728 0.23750176 0.20215708 -0.84166282 0.89759171
2.599 17.139 -1.723 0.20132923 0.15144499 -0.88791895 0.92296755
2.523 16.997999 -1.706 0.22215369 0.37278882 -0.33977747 0.55115563
2.6589999 18.322001 -1.854 0.13400419 0.48314616 -0.55656821 0.74910313
2.596 18.086 -1.827 0.38710624 0.11638996 -0.30918008 0.50891078
2.5810001 18.398001 -1.8609999 0.1082363 0.49545124 -0.53802043 0.73935986
2.5209999 18.389999 -1.859 0.14282227 0.47710991 -0.52958173 0.7269724
2.4630001 18.398001 -1.859 0.20238793 0.43927824 -0.52311897 0.71244627
2.408 18.424999 -1.8609999 0.23367059 0.40075985 -0.5005675 0.68247944
2.352 18.445999 -1.863 0.23171258 0.40255889 -0.50145191 0.68351912
2.2969999 18.475 -1.865 0.22507286 0.39366689 -0.50968057 0.68220651
2.276 18.548 -1.873 0.24620184 0.37293455 -0.51352829 0.68073994
1.551 15.648 -1.544 0.34761161 -0.24794744 -0.50329632 0.66001433
1.493 15.558 -1.534 0.35659054 -0.22652611 -0.45744717 0.62267876
1.437 15.482 -1.525 0.33585131 -0.26526481 -0.43606985 0.61099792
1.3789999 15.387 -1.5140001 0.24412894 -0.36457059 -0.39822632 0.59253258
1.325 15.316 -1.505 -0.31905091 0.42863226 -0.56895739 0.7805329
1.271 15.249 -1.497 -0.23578492 0.46799839 -0.53981382 0.75234032
1.219 15.203 -1.492 -0.14510642 0.48338121 -0.5270564 0.72972715
1.198 15.237 -1.495 -0.14159626 0.48417503 -0.53060251 0.73212981
1.15 15.251 -1.4960001 -0.16162193 0.47860098 -0.55940557 0.75373417
1.103 15.26 -1.497 -0.115924 0.48527792 -0.54651135 0.7400052
1.058 15.309 -1.502 -0.10203782 0.48615205 -0.56256086 0.75048667
1.011 15.328 -1.5039999 -0.080617927 0.47238749 -0.62502432 0.7875942
0.96499997 15.371 -1.508 0.04402189 0.43811807 -0.67062038 0.80225748
0.921 15.443 -1.516 0.063537367 0.41713142 -0.70459187 0.82127059
0.91299999 15.738 -1.549 0.31222102 0.10439117 -0.21792954 0.39480725
0.83999997 15.297 -1.499 -0.045812912 0.44112164 -0.69296253 0.82272971
0.79500002 15.357 -1.506 0.11172845 0.3938767 -0.6921612 0.80418229
0.77100003 15.868 -1.562 -0.33671689 0.23766711 -0.13787556 0.43459588
0.69099998 15.189 -1.487 0.30008286 -0.30533528 -0.37208724 0.56721097
0.63200003 14.909 -1.455 0.35987145 -0.20985156 -0.3557654 0.54782677
0.58099997 14.817 -1.4450001 0.36354867 -0.20960975 -0.38490123 0.56943202
0.55900002 14.85 -1.448 0.39389277 -0.13539103 -0.38860103 0.56964284
0.537 15.597 -1.531 -0.29915625 0.42231309 -0.62308311 0.8099848
0.48800001 15.592 -1.53 0.20049718 -0.37265533 -0.29306871 0.51474303
0.43799999 15.558 -1.526 0.23554188 -0.35027891 -0.29742953 0.51637161
0.36399999 14.486 -1.4069999 0.37424722 -0.24398726 -0.49244693 0.66490203
0.31600001 14.346 -1.392 0.38354778 -0.23119786 -0.48583549 0.66075522
0.27000001 14.345 -1.392 0.37120566 -0.24692796 -0.49158713 0.66364521
0.20999999 11.887 -1.119 0.38683543 0.06604147 -0.45372984 0.59989488
0.13600001 11.932 -1.124 0.39632803 0.0459565 -0.46719792 0.61437917
0.097999997 11.918 -1.122 0.39892557 0.045147531 -0.46779853 0.61645389
0.061000001 12.127 -1.145 0.39468873 0.13289987 -0.47531104 0.63195103
0.023 11.734 -1.102 -0.37052727 0.45969921 -0.4489373 0.7417267
-0.347 11.772 -1.1059999 -0.045276728 0.51465821 -0.5579685 0.76042879
-0.382 11.712 -1.1 0.0057668164 0.51456428 -0.56572491 0.76475769
-0.419 11.716 -1.1 0.035138965 0.50763953 -0.56843573 0.76292318
-0.456 11.721 -1.101 0.029127233 0.50679243 -0.56791729 0.76171976
-0.493 11.735 -1.103 0.030568898 0.50369954 -0.58367145 0.77156985
-0.51200002 11.734 -1.103 0.029689118 0.50559837 -0.58422601 0.77319545
-0.54900002 11.735 -1.103 0.032205097 0.50459051 -0.58629215 0.77420104
-0.58700001 11.771 -1.107 0.035822354 0.49904296 -0.59242463 0.77543151
-0.62400001 11.763 -1.107 0.042647123 0.49799636 -0.58920908 0.77264899
-0.662 11.769 -1.108 0.043767862 0.49679118 -0.57306218 0.75968242
-0.69999999 11.788 -1.11 0.048199408 0.49224833 -0.59774613 0.77584279
-0.73799998 11.802 -1.112 0.041015424 0.49042994 -0.60124189 0.77697855
-0.77399999 11.784 -1.11 0.048304103 0.48915666 -0.59793049 0.77403384
3.096 11.633 -1.209 0.33552453 0.38231051 -0.48284492 0.7013396
3.0739999 11.698 -1.216 0.3674008 0.33737707 -0.47615778 0.6895889
2.9879999 11.521 -1.194 0.1691148 0.49878007 -0.48800272 0.7180028
2.97 11.598 -1.202 0.34773377 0.36153477 -0.4794659 0.69391191
2.9449999 11.654 -1.207 0.36545846 0.33236501 -0.4811863 0.6896134
2.905 11.651 -1.206 0.37019581 0.3255775 -0.47461227 0.68432629
2.865 11.647 -1.204 0.37326479 0.32154599 -0.47996697 0.68781298
2.8410001 11.626 -1.201 0.37338254 0.32333496 -0.47983643 0.68862402
2.839 11.776 -1.2180001 0.42771637 0.21007279 -0.47438836 0.67239588
2.835 11.922 -1.235 0.44603771 0.15101591 -0.47126094 0.66621494
2.836 12.095 -1.255 0.46006477 0.038693786 -0.48487291 0.66952109
2.8299999 12.241 -1.271 0.46518186 0.034659181 -0.48273426 0.67128819
2.8280001 12.409 -1.29 0.46507451 0.029626178 -0.48240355 0.67073482
2.8269999 12.584 -1.3099999 0.46338809 0.022012673 -0.48443854 0.6707412
2.842 12.744 -1.329 0.46345118 0.017260028 -0.48591435 0.67171246
2.839 12.918 -1.348 0.46054578 0.012828298 -0.48325428 0.66768384
2.8369999 13.105 -1.37 0.45625085 0.0014464823 -0.48630047 0.66682464
2.835 13.298 -1.392 0.44826075 -0.0023638359 -0.48741731 0.6622076
2.829 13.474 -1.4119999 0.45472327 -0.00054942234 -0.48666289 0.66604376
2.8280001 13.679 -1.4349999 0.45877814 0.00040789461 -0.48976851 0.67108178
2.8239999 13.877 -1.4579999 0.45857239 -0.017377496 -0.49095875 0.67203504
2.8469999 14.103 -1.484 0.44911051 0.069521658 -0.49123642 0.66921353
2.842 14.309 -1.508 0.42460704 0.16939911 -0.48154381 0.66398168
2.796 14.312 -1.507 0.42205325 0.16871461 -0.48131198 0.66200817
2.7479999 14.303 -1.505 0.42124289 0.16381076 -0.48356733 0.66190398
2.704 14.321 -1.506 0.39979151 0.21681488 -0.48162419 0.66242266
2.6949999 14.517 -1.529 0.35439727 0.26845288 -0.4818556 0.65562886
2.8469999 15.6 -1.6569999 0.3865808 -0.28417704 -0.42830101 0.64315087
2.8759999 15.898 -1.691 0.44971052 -0.055545039 -0.62666833 0.7733292
2.8789999 16.202 -1.727 0.46201074 0.05602869 -0.45161739 0.64849937
2.881 16.51 -1.762 0.44820395 -0.081028841 -0.56887001 0.72874242
2.882 16.826 -1.799 0.43625456 0.058749948 -0.62733185 0.76636469
2.5510001 15.494 -1.638 -0.42254847 0.30528289 -0.37620088 0.64286232
2.4189999 15.767 -1.6670001 0.29954034 0.022852438 -0.160772 0.34072611
2.579 17.153 -1.831 0.32503515 -0.048918661 -0.81369454 0.87757605
2.675 18.171 -1.95 0.24348639 0.3945688 -0.35905766 0.58642352
2.5910001 17.992001 -1.928 0.41534293 0.040343959 -0.35088414 0.54521286
2.503 17.778 -1.902 0.43346426 0.033056643 -0.44727761 0.62373173
2.523 18.337 -1.967 0.2223604 0.4237228 -0.45822272 0.66253543
2.4990001 18.370001 -1.97 0.25112176 0.39824018 -0.46252692 0.65999132
2.4419999 18.386 -1.971 0.23174444 0.41611525 -0.46263316 0.66399312
2.3900001 18.437 -1.976 0.19380005 0.43188983 -0.48083675 0.67475277
2.3369999 18.48 -1.9809999 0.23267724 0.38926482 -0.48013735 0.6604526
2.279 18.489 -1.9809999 0.24814129 0.3719278 -0.48169258 0.65721542
2.2379999 18.642 -1.998 0.2597011 0.356877 -0.47740307 0.65016884
1.5700001 15.832 -1.663 0.34536752 -0.23777753 -0.50511724 0.65647566
1.507 15.7 -1.647 0.34734675 -0.2298557 -0.55306685 0.69236284
1.476 15.637 -1.6390001 0.35581374 -0.24141027 -0.50925714 0.66650218
1.414 15.501 -1.622 0.30939329 -0.30109563 -0.41551509 0.59919578
1.346 15.296 -1.598 -0.31906828 0.42682052 -0.58283091 0.78972918
1.288 15.189 -1.585 -0.18389842 0.4758561 -0.55996823 0.75751042
1.2410001 15.199 -1.585 -0.18413341 0.47639212 -0.55806619 0.75650007
1.194 15.205 -1.586 -0.17417324 0.47239637 -0.57531297 0.76451272
1.149 15.256 -1.591 -0.16655496 0.47502074 -0.59611964 0.78022039
1.126 15.264 -1.592 -0.17681317 0.47046599 -0.60835826 0.789114
1.081 15.305 -1.596 -0.15533525 0.47396344 -0.61366719 0.79079568
1.033 15.308 -1.596 -0.15373704 0.47041786 -0.61263508 0.78755939
0.98799998 15.361 -1.602 -0.0698274 0.46101394 -0.67386591 0.81945407
0.93900001 15.354 -1.601 -0.027775198 0.43573371 -0.70837027 0.83212006
0.88499999 15.268 -1.591 -0.14778052 0.44646594 -0.68215883 0.82855994
0.83499998 15.231 -1.586 -0.14074874 0.43316257 -0.70941246 0.84303385
0.85699999 16.063 -1.683 0.24286503 0.12746276 -0.14129677 0.3085368
0.78399998 15.641 -1.6339999 -0.27281916 -0.16920246 -0.056678742 0.32599425
0.71100003 15.154 -1.576 0.25535154 -0.35508284 -0.36921325 0.57236934
0.64899999 14.834 -1.538 0.30216619 -0.32123134 -0.41074848 0.60266769
0.61500001 15.12 -1.572 0.37210807 -0.21036617 -0.45225239 0.6222946
0.55500001 14.804 -1.534 0.35744879 -0.24832281 -0.47090971 0.64124084
0.53399998 15.531 -1.619 0.15401754 0.38199475 -0.69510323 0.80796653
0.50999999 15.522 -1.618 0.16044159 -0.37423405 -0.25478768 0.48032218
0.46000001 15.511 -1.617 0.15992117 -0.37571332 -0.25467777 0.48124427
0.38299999 14.486 -1.497 0.3716442 -0.24482307 -0.50278842 0.67145658
0.333 14.314 -1.476 0.37109002 -0.24801555 -0.4950439 0.66654932
0.28799999 14.337 -1.479 0.38768882 -0.22088429 -0.50066322 0.67063862
0.16 11.876 -1.191 0.39621076 0.031140942 -0.46289888 0.61010498
0.142 11.92 -1.196 0.39504448 0.075380817 -0.47210258 0.62018001
0.104 11.896 -1.193 0.39530393 0.068876415 -0.46639618 0.6152516
0.068000004 12.105 -1.217 0.39830482 0.12837535 -0.48231429 0.63855618
3.073 11.64 -1.279 0.35748208 0.35533479 -0.48270267 0.69789547
3.023 11.6 -1.272 0.34183604 0.36553371 -0.4806166 0.69387251
2.9719999 11.55 -1.265 0.32436728 0.3864857 -0.48477533 0.69970882
2.961 11.661 -1.278 0.36118028 0.33724767 -0.4852421 0.69256562
2.9219999 11.661 -1.277 0.36824933 0.32453522 -0.48709884 0.69151717
2.8840001 11.664 -1.276 0.3700023 0.32200399 -0.48544216 0.69010317
2.859 11.641 -1.272 0.37038413 0.32789731 -0.48503619 0.6927923
2.8469999 11.751 -1.285 0.42180249 0.22251947 -0.49117661 0.68460697
2.848 11.922 -1.306 0.44283476 0.16464853 -0.48661405 0.67823666
2.8440001 12.076 -1.324 0.46100986 0.040214285 -0.48043764 0.66705894
2.8410001 12.234 -1.3430001 0.46520081 0.035138208 -0.48343903 0.67183316
2.8380001 12.399 -1.362 0.46478444 0.02409008 -0.48554647 0.67257738
2.8340001 12.565 -1.382 0.46336928 0.020344252 -0.48377624 0.67019731
2.852 12.738 -1.403 0.4653677 0.017566059 -0.4849107 0.67231989
2.849 12.918 -1.425 0.46141672 0.011983265 -0.48598835 0.67024893
2.8440001 13.091 -1.4450001 0.45430681 0.009401693 -0.48613235 0.665438
2.8440001 13.294 -1.47 0.45144713 -0.0021114866 -0.48500225 0.66259801
2.839 13.482 -1.492 0.45146796 0.00030020042 -0.487012 0.66408139
2.836 13.68 -1.516 0.45876059 0.0058085234 -0.49238697 0.67300814
2.8310001 13.877 -1.54 0.45242316 -0.011141715 -0.49498737 0.67068869
2.852 14.098 -1.567 0.45343667 0.066365905 -0.47553161 0.66040862
2.849 14.315 -1.5930001 0.42842242 0.16584812 -0.48586485 0.66866732
2.8050001 14.33 -1.5930001 0.41845223 0.16606261 -0.48687354 0.66311753
2.7579999 14.327 -1.592 0.41974181 0.16796371 -0.48704883 0.66453862
2.7130001 14.335 -1.592 0.41446644 0.16794956 -0.48653078 0.66083407
2.701 14.525 -1.615 0.36260128 0.26013789 -0.48429477 0.6585536
2.8540001 15.628 -1.751 0.43787268 -0.15763742 -0.45282027 0.64932907
