# .PCD v0.7 - Point Cloud Data file format
VERSION 0.7
FIELDS x y z normal_x normal_y normal_z curvature
SIZE 4 4 4 4 4 4 4
TYPE F F F F F F F
COUNT 1 1 1 1 1 1 1
WIDTH 656
HEIGHT 1
VIEWPOINT 0 0 0 1 0 0 0
POINTS 656
DATA ascii
-36.716999 10.159 1.497 0.30388319 0.034984089 0.093447059 0.31984565
-36.702999 10.031 1.4960001 -0.45246649 -0.010333003 0.64951199 0.79164296
-36.726002 9.9130001 1.495 -0.48946184 0.018395802 0.51875412 0.71345437
-36.689999 9.7799997 1.493 -0.17644861 0.062427536 0.39882705 0.44056138
-36.654999 9.7089996 1.4910001 -0.17079243 0.085486375 0.36226889 0.40953234
-36.676998 9.592 1.4910001 -0.17473423 0.081724271 0.36344007 0.41146031
-36.610001 9.4519997 1.488 -0.16719729 0.070022069 0.30499077 0.35479206
-36.591 9.3240004 1.4859999 -0.17535982 0.048535503 0.31128198 0.36055961
-36.641998 9.2150002 1.487 -0.17242476 0.053336538 0.31110844 0.35967144
-36.657001 9.0959997 1.4859999 -0.46547151 0.067031771 0.38995841 0.61092108
-36.685001 8.9809999 1.4859999 -0.42330891 0.078805029 0.29683706 0.52298462
-36.634998 8.908 1.484 -0.15089482 0.08293923 0.20086712 0.26456711
-36.665001 8.6709995 1.483 -0.42446682 0.08147388 0.27662164 0.51315647
-36.622002 7.6350002 1.474 -0.35937768 0.14477995 0.20171696 0.43681034
-36.598 7.5100002 1.472 0.070947289 0.17434925 -0.5050168 0.53895563
-36.613998 7.3930001 1.472 -0.69155043 0.1759202 0.10810259 0.72171748
-36.618 7.3340001 1.472 -0.37642887 0.1749616 0.22105631 0.47029367
-36.634998 7.2179999 1.472 -0.53973204 0.19596832 0.20613879 0.61008805
-36.612 7.0939999 1.47 -0.32830173 0.20557407 0.23289019 0.45197406
-36.616001 6.9759998 1.47 -0.36403814 0.2189493 0.27002189 0.50336307
-36.624001 6.8579998 1.469 -0.39209044 0.22965947 0.27988648 0.53368044
-36.573002 6.73 1.467 -0.076600432 0.27160087 0.19107172 0.34079769
-36.574001 6.6110001 1.466 -0.072161824 0.28291544 0.21453172 0.36231524
-36.551998 6.4889998 1.464 -0.057426691 0.27794385 0.20211267 0.34842524
-36.581001 6.4349999 1.465 -0.034214258 0.26814187 0.15484223 0.31152335
-36.566002 6.3140001 1.464 -0.015393883 0.24251407 0.14567925 0.283324
-36.548 6.1929998 1.4630001 0.0041424632 0.24962464 0.12554558 0.27944821
-36.529999 6.0710001 1.461 0.031374127 0.23395371 0.10740735 0.25933573
-36.563 5.9590001 1.462 0.13304067 0.28529525 -0.077939168 0.3242957
-36.534 5.8369999 1.46 0.13438046 0.25833163 -0.091929391 0.30535939
-36.548 5.7210002 1.46 0.13092241 0.1672114 -0.13638154 0.25238907
-36.561001 17.295 1.3200001 0.41913295 -0.098288164 -0.12380433 0.44795144
-36.563 17.225 1.319 0.41820621 -0.092494614 -0.12286723 0.44558731
-36.582001 17.094 1.318 0.41514248 -0.07847847 -0.11977583 0.43914509
-36.584999 16.955 1.317 0.42962703 -0.046298444 -0.12168679 0.44892159
-36.592999 16.82 1.3150001 0.44358405 -0.050410226 -0.11661741 0.46141914
-36.595001 16.681 1.314 0.4402633 -0.03945956 -0.11325186 0.45630562
-36.603001 16.546 1.312 0.43914375 -0.031327475 -0.11218113 0.45432726
-36.611 16.412001 1.311 0.43684977 -0.03579437 -0.11019117 0.45195249
-36.577999 16.327999 1.309 0.42164886 -0.033068795 -0.11238408 0.43762025
-36.592999 16.197001 1.308 0.42022634 -0.024124302 -0.10831082 0.43463019
-36.606998 16.066 1.307 0.42721117 -0.023111444 -0.11432272 0.44284669
-36.602001 15.927 1.3049999 0.41983116 -0.018856457 -0.11636662 0.43606761
-36.588001 15.784 1.304 0.42296815 -0.00092582963 -0.11969739 0.43957978
-36.575001 15.642 1.302 0.4079842 -0.016357036 -0.11987185 0.42554426
-36.571999 15.505 1.3 0.41292328 -0.019223569 -0.12286109 0.43124241
-36.544998 15.426 1.299 0.41460747 -0.024477409 -0.12412831 0.43348163
-36.550999 15.293 1.2970001 0.37661999 -0.025843751 -0.12736559 0.3984125
-36.542 15.155 1.296 0.41596264 -0.0020007808 -0.12562546 0.43452349
-36.534 15.017 1.294 0.45295835 0.012783865 -0.11716107 0.46803996
-36.525002 14.879 1.2920001 0.45636076 0.020240994 -0.11703911 0.47156441
-36.508999 14.739 1.29 0.45939332 0.012510819 -0.10706663 0.47187075
-36.512001 14.607 1.289 0.52732074 0.0018044198 -0.079413682 0.53327006
-36.479 14.528 1.288 0.52419281 -0.003775388 -0.076581329 0.52977073
-36.514 14.408 1.2869999 0.52362877 -0.0021594043 -0.072582543 0.52863973
-36.505001 14.273 1.286 0.5387035 0.01557663 -0.086151332 0.54577112
-36.486 14.133 1.284 0.54822338 0.016600158 -0.095045716 0.55664903
-36.437 13.983 1.281 0.60148144 0.0052634422 -0.060624361 0.60455185
-36.411999 13.842 1.279 0.59630454 -0.0099589806 -0.063816905 0.59979236
-36.480999 13.737 1.28 0.58359164 -0.01408936 -0.052403748 0.5861091
-36.473 13.669 1.279 0.61611819 -0.021692041 -0.038362265 0.61769235
-36.481998 13.541 1.278 0.48148334 0.0043297224 -0.096143901 0.49100775
-36.462002 13.404 1.276 0.47688049 0.025328904 -0.092299461 0.48639053
-36.459 13.273 1.275 0.46309647 0.030736594 -0.10007396 0.47478193
-36.463001 13.145 1.274 0.50491977 0.0089585334 -0.086914718 0.51242405
-36.448002 13.01 1.272 0.50222999 0.0073518357 -0.093721837 0.51095283
-36.452 12.883 1.271 0.51849425 0.017494826 -0.094181299 0.52726889
-36.438999 12.813 1.27 0.52366859 0.020726543 -0.09896028 0.53333998
-36.437 12.684 1.2690001 0.51330495 0.018352577 -0.097043514 0.52272004
-36.443001 12.558 1.268 0.51789355 0.015003743 -0.086130291 0.52522117
-36.453999 12.434 1.267 0.52008736 0.0098949503 -0.08896926 0.52773505
-36.467999 12.311 1.266 0.53479409 -0.0018489519 -0.08823058 0.54202658
-36.469002 12.184 1.265 0.55865061 0.011100227 -0.09054485 0.56604958
-36.448002 12.049 1.263 0.55537897 0.024297455 -0.09732601 0.56436563
-36.429001 11.98 1.262 0.55945611 0.031222023 -0.10163704 0.56946993
-36.443001 11.858 1.262 0.5543083 0.045441195 -0.097095579 0.56457961
-36.450001 11.733 1.261 0.54771286 0.03489824 -0.090649456 0.55625945
-36.453999 11.608 1.26 0.51668417 0.031657826 -0.077351421 0.52340043
-36.451 11.481 1.2589999 0.53166997 0.033877827 -0.046655506 0.53478724
-36.450001 11.355 1.258 0.53325856 0.034510747 -0.047282487 0.53646183
-36.455002 11.231 1.257 0.52511793 0.032297656 -0.04111588 0.52771443
-36.435001 11.162 1.256 0.5148105 0.029930461 -0.03369534 0.51677948
-36.426998 11.035 1.2539999 0.50827789 0.036140591 -0.04125312 0.51122832
-36.431 10.911 1.2539999 0.5456441 0.051002629 -0.052547902 0.55053616
-36.435001 10.788 1.253 0.56874549 0.026451331 -0.054599017 0.57197219
-36.415001 10.657 1.251 0.63019574 0.038716517 -0.020988047 0.63173264
-36.397999 10.529 1.25 0.62915176 0.030679001 -0.01994431 0.63021499
-36.368999 10.396 1.248 0.66753447 0.025432913 -0.034505367 0.66890937
-36.388 10.34 1.248 0.68810594 0.029194549 -0.077245355 0.69304323
-36.389 10.217 1.247 -0.067715257 -0.03208407 0.41386962 0.42059815
-36.382999 9.724 1.243 -0.091015309 -0.042356171 0.2954067 0.31199831
-36.303001 9.033 1.237 -0.79401225 0.045756944 0.31262615 0.85456669
-36.326 8.9169998 1.2359999 -0.78015888 0.087216198 0.2839722 0.83480221
-36.320999 8.7950001 1.235 -0.76812232 0.11939287 0.29783064 0.83244795
-36.314999 8.7340002 1.235 -0.72815919 0.072283149 0.32561547 0.80091578
-36.346001 8.6199999 1.235 -0.70398277 0.18204406 0.21213542 0.75745177
-36.334 8.4969997 1.234 -0.73505771 0.21142979 0.19162798 0.78850091
-36.353001 8.3809996 1.234 -0.76553285 0.22681235 0.14956471 0.81231397
-36.424 8.2770004 1.235 0.028036922 0.036625907 -0.36868286 0.37155697
-36.445999 8.0410004 1.234 0.034364074 0.21202698 -0.3190918 0.38465038
-36.405998 7.9130001 1.232 -0.11619839 0.30577517 -0.52903676 0.62199712
-36.345001 7.8400002 1.23 -0.49511087 0.049131036 0.29630774 0.57909143
-36.313999 7.7140002 1.229 -0.11278757 0.23260331 0.16164763 0.30488572
-36.265999 7.5840001 1.227 -0.42112339 0.14294118 0.28714812 0.52936858
-36.248001 7.4619999 1.226 -0.420733 0.15658399 0.29520333 0.53728932
-36.237999 7.3410001 1.225 -0.41690966 0.15686873 0.29522461 0.53439593
-36.248001 7.2249999 1.224 -0.38018966 0.17860746 0.27670148 0.50299954
-36.259998 7.1090002 1.224 -0.42372766 0.2045587 0.33157575 0.57561433
-36.25 7.0479999 1.223 -0.40647396 0.19782601 0.29273537 0.53856307
-36.291 6.9369998 1.224 -0.38316849 0.20948921 0.2882787 0.52326709
-36.271999 6.816 1.223 -0.084435046 0.21770528 0.20482136 0.3106069
-36.283001 6.6999998 1.222 -0.077199787 0.22800203 0.21207571 0.32081279
-36.282001 6.5819998 1.222 -0.067387909 0.23068033 0.20360282 0.31497404
-36.297001 6.467 1.222 -0.047412246 0.23501155 0.16681683 0.29207227
-36.506001 6.0910001 1.226 0.058318824 0.098477736 -0.45543236 0.46959299
-36.389 5.954 1.222 0.091430634 0.058097035 -0.28443629 0.30436626
-36.646 5.8779998 1.228 0.14132267 0.18985488 -0.30448079 0.38564947
-36.355999 17.257 1.125 0.40486521 -0.083584443 -0.12399176 0.4315972
-36.361 17.118999 1.124 0.4217546 -0.094144568 -0.11764678 0.4478626
-36.368999 16.983999 1.122 0.43250084 -0.055528425 -0.11981443 0.45221221
-36.365002 16.912001 1.122 0.42876017 -0.051593021 -0.11623347 0.44722182
-36.383999 16.782 1.1210001 0.42877796 -0.048242144 -0.11609837 0.44682959
-36.382 16.643 1.119 0.42132893 -0.04149431 -0.1093924 0.43727171
-36.374001 16.500999 1.118 0.42900571 -0.032947578 -0.11599433 0.44563004
-36.372002 16.363001 1.117 0.41779092 -0.019060306 -0.1145775 0.43363643
-36.387001 16.233 1.1160001 0.41732228 -0.027301406 -0.11421365 0.4335297
-36.368 16.087999 1.114 0.44493151 -0.034840908 -0.14033076 0.46783614
-36.373001 16.021999 1.114 0.45825979 -0.043407969 -0.15481871 0.48564917
-36.380001 15.888 1.112 0.47766879 -0.037359897 -0.17703614 0.51078862
-36.387001 15.755 1.1109999 0.49069098 -0.039018299 -0.19393238 0.52906501
-36.355999 15.606 1.109 0.49412888 -0.036641363 -0.21265912 0.53919369
-36.345001 15.467 1.108 0.46745133 -0.013021743 -0.23912379 0.52522421
-36.320999 14.987 1.103 0.57536066 -0.041661661 -0.34996656 0.67472374
-36.32 14.853 1.102 0.63899052 -0.038900077 -0.36825031 0.7385326
-36.299999 14.712 1.1 0.69407582 0.004346462 -0.37799293 0.79034096
-36.27 14.568 1.098 0.69636011 0.001938479 -0.39314231 0.79967618
-36.278 14.439 1.098 0.70097113 0.016543105 -0.41028783 0.81238556
-36.287998 14.311 1.097 0.69986522 0.044799902 -0.42033193 0.81761682
-36.279999 14.242 1.096 0.70073849 0.039073721 -0.42547429 0.82072502
-36.282001 14.112 1.095 0.70307529 -0.0095278537 -0.47716951 0.84976256
-36.273998 13.977 1.094 0.758555 0.027499016 -0.45532438 0.88514531
-36.264999 13.843 1.092 0.75138879 0.054658215 -0.42854673 0.86673236
-36.247002 13.706 1.091 0.77427149 0.076540075 -0.35620677 0.85570908
-36.257999 13.58 1.09 0.77658379 0.026716273 -0.33213878 0.84505165
-36.269001 13.455 1.089 0.65308726 0.029921947 -0.51998395 0.83534521
-36.231998 13.376 1.0880001 0.65145415 0.034772731 -0.41623014 0.77385348
-36.228001 13.246 1.087 0.65408647 0.023488903 -0.44052005 0.78894788
-36.221001 13.114 1.086 0.67841518 -0.005026469 -0.45805714 0.81858951
-36.254002 12.998 1.085 0.66975921 0.023443758 -0.42238632 0.79217249
-36.257 12.87 1.085 0.68205458 0.043465018 -0.44865909 0.81754673
-36.249001 12.739 1.0829999 0.6823855 0.04203447 -0.4689036 0.82902801
-36.241001 12.609 1.082 0.66758263 0.050964005 -0.55982494 0.87273586
-36.229 12.541 1.081 0.68802792 0.049739201 -0.45178026 0.82459795
-36.249001 12.421 1.081 0.68725693 0.019083412 -0.43282518 0.81241852
-36.238998 12.29 1.08 0.71279275 0.0039316388 -0.43751779 0.83636761
-36.250999 12.167 1.079 0.71300173 0.013202416 -0.46463203 0.85113376
-36.285 12.052 1.079 0.70461076 0.043412231 -0.48317808 0.85546595
-36.275002 11.922 1.0779999 0.71510494 0.065776855 -0.48744991 0.86793381
-36.269001 11.794 1.077 0.68002176 0.099664658 -0.59692228 0.91031802
-36.252998 11.726 1.076 0.70221865 0.060652986 -0.50040495 0.86440438
-36.221001 11.59 1.074 0.50805402 0.064105347 -0.071574122 0.51706016
-36.188 11.455 1.073 0.52527344 0.055444583 -0.04235518 0.52988702
-36.181999 11.328 1.072 0.5174458 0.041355241 -0.035861552 0.52033305
-36.169998 11.199 1.071 0.5199886 0.038643964 -0.037567198 0.5227741
-36.175999 11.077 1.0700001 0.52131569 0.040077608 -0.033849239 0.52394849
-36.174999 10.952 1.069 0.52600098 0.030010868 -0.03722167 0.52816957
-36.174 10.89 1.069 0.52253401 0.015499509 -0.046882123 0.52486187
-36.169998 10.765 1.068 0.609725 0.01845447 -0.0063302815 0.61003703
-36.192001 10.648 1.068 0.63182497 0.012257671 -0.022614241 0.63234836
-36.208 10.529 1.067 0.6333791 0.0035765246 -0.024461806 0.63386136
-36.212002 10.407 1.066 -0.13292328 -0.037247006 0.45603982 0.47647482
-36.235001 10.291 1.066 -0.092936456 -0.040298197 0.44726884 0.45859629
-36.254002 10.173 1.066 -0.078888297 -0.020901093 0.27592576 0.28774163
-36.265999 10.115 1.066 -0.067073852 -0.043460712 0.25107571 0.26348954
-36.514 9.4460001 1.067 -0.053835243 -0.0053247064 -0.25950277 0.26508164
-36.540001 9.3299999 1.067 -0.042465359 0.0098691657 -0.30437431 0.30748078
-36.547001 9.2709999 1.067 -0.048579007 0.037482634 -0.32258356 0.3283672
-36.549999 9.1499996 1.066 -0.051742494 0.047052108 -0.32517016 0.33260611
-36.548 9.0270004 1.066 -0.044000387 0.059799131 -0.37289986 0.38021871
-36.563999 8.9099998 1.0650001 -0.054857761 0.040129185 -0.37539864 0.38150212
-36.584 8.7930002 1.0650001 -0.015943289 0.043892864 -0.45610344 0.45848787
-36.605999 8.6759996 1.0650001 -0.017025083 0.053179525 -0.45578548 0.45919314
-36.640999 8.5629997 1.0650001 0.008564949 0.087201729 -0.46571261 0.47388366
-36.632999 8.5010004 1.0650001 0.005759865 0.058874577 -0.46551836 0.46926188
-36.660999 8.3859997 1.0650001 0.01031822 0.084279433 -0.45623153 0.4640654
-36.681999 8.2700005 1.0650001 0.0097870827 0.094997481 -0.40531987 0.41641867
-36.683998 8.1490002 1.064 0.043084294 0.10331897 -0.37416214 0.3905488
-36.674 8.026 1.063 0.030898571 0.11406496 -0.40821996 0.42498127
-36.705002 7.9120002 1.063 0.035306424 0.12008742 -0.29466778 0.32015094
-36.702 7.7909999 1.063 0.062267125 0.11305265 -0.46559572 0.48315367
-36.687 7.7280002 1.062 0.05511567 0.084390491 -0.38020003 0.39333391
-36.708 7.132 1.0599999 0.096973479 0.20616396 -0.12301616 0.25892162
-36.723999 7.0149999 1.0599999 0.096428812 0.20523019 -0.12047254 0.25677145
-36.714001 6.9530001 1.059 0.10632318 0.21752408 -0.12930197 0.27448195
-36.712002 6.8340001 1.059 0.10697034 0.21569046 -0.13285723 0.27498376
-36.721001 6.7160001 1.059 0.11285073 0.24152328 -0.11377209 0.28984973
-36.723999 6.598 1.058 0.14763954 0.23407267 -0.1670877 0.32327348
-36.724998 6.4790001 1.058 0.15293929 0.29728374 -0.2158822 0.39796129
-36.731998 6.3610001 1.057 0.14518961 0.34993929 -0.30630744 0.48719788
-36.744999 6.2449999 1.057 0.13482362 0.38736039 -0.32030967 0.52040732
-36.543999 6.151 1.052 0.046763957 0.2959134 -0.53484327 0.61303258
-36.646 6.0500002 1.054 0.10303944 0.45706087 -0.3348251 0.57587296
-36.553001 5.9169998 1.052 0.098759174 0.31695563 -0.45754886 0.565301
-36.001999 17.226 0.815 0.2608332 -0.074785598 0.080479175 0.28302604
-35.976002 16.936001 0.81300002 -0.60967076 -0.01577235 0.66293901 0.90079707
-35.993 16.806 0.81199998 -0.45517039 -0.011102382 0.68439698 0.82201129
-36.001999 16.673 0.81099999 -0.46425986 -0.011211161 0.68448597 0.82715416
-35.979 16.594 0.81 -0.44346708 -0.012401051 0.68402803 0.8152982
-35.991001 16.462 0.81 -0.48665613 -0.055940066 0.4962272 0.69728398
-36.021 16.339001 0.80900002 -0.77332747 0.0069225766 0.43217689 0.88592333
-36.043999 16.214001 0.80900002 -0.77018082 0.032003667 0.36418518 0.85254538
-36.081001 16.094 0.80900002 -0.77785742 0.039411221 0.35746062 0.85696763
-36.136002 15.983 0.80900002 0.57883841 -0.23141611 -0.5009563 0.7997278
-36.185001 15.868 0.80900002 0.53607082 -0.24369949 -0.4622364 0.74861461
-36.188999 15.803 0.80800003 0.60096449 -0.16418947 -0.54888129 0.83029342
-36.222 15.682 0.80800003 0.57962239 -0.1091428 -0.53423482 0.7957896
-36.250999 15.559 0.80800003 0.52864176 -0.12584555 -0.56152439 0.78141469
-36.283001 15.438 0.80800003 0.52424043 -0.12629253 -0.58836919 0.79809535
-36.341999 15.06 0.80599999 0.58602536 -0.089527182 -0.63510013 0.86878824
-36.356998 14.999 0.80599999 0.58934903 -0.066306986 -0.6359024 0.86954057
-36.396 14.882 0.80599999 0.59395081 -0.024366992 -0.64046317 0.87382174
-36.405998 14.753 0.80500001 0.60128462 -0.0091853449 -0.6466381 0.88304496
-36.431 14.63 0.80500001 0.6000464 -0.00094755646 -0.65012789 0.88471627
-36.424999 14.495 0.80400002 0.67513013 0.0061623063 -0.62256706 0.9183836
-36.432999 14.365 0.80299997 0.68230432 -0.017634608 -0.60013151 0.90884984
-36.456001 14.242 0.80299997 0.68199193 -0.024365116 -0.60035169 0.90891629
-36.431999 14.167 0.80199999 0.67711556 -0.026794553 -0.61535239 0.91534799
-36.438999 14.038 0.80199999 0.67584234 -0.019238086 -0.62000942 0.91735744
-36.457001 13.913 0.801 0.72777474 -0.03006818 -0.59258449 0.93899763
-36.457001 13.782 0.801 0.74968368 -0.027072629 -0.59180331 0.95550495
-36.466 13.655 0.80000001 0.74876833 -0.017168146 -0.59514558 0.95663315
-36.477001 13.529 0.80000001 0.75100744 -0.016546231 -0.58941609 0.95482838
-36.476002 13.398 0.79900002 0.74561059 -0.017689258 -0.60291237 0.95903671
-36.471001 13.331 0.79799998 0.60349071 -0.013330562 -0.69521368 0.92070669
-36.479 13.204 0.79799998 0.61707854 -0.0030763373 -0.69066596 0.92618293
-36.485001 13.077 0.79699999 0.61741918 -0.019261528 -0.69226348 0.92779642
-36.493 12.951 0.79699999 0.63923788 0.031294383 -0.65548283 0.91611254
-36.501999 12.825 0.796 0.65538573 0.085199565 -0.61362082 0.90184253
-36.5 12.695 0.796 0.65524626 0.053481992 -0.62512767 0.90718937
-36.506001 12.569 0.79500002 0.67025042 0.057722338 -0.56943136 0.8813737
-36.492001 12.5 0.79500002 0.67196137 -0.030440411 -0.5594815 0.87491614
-36.504002 12.376 0.79400003 0.70393628 0.0072315829 -0.35678083 0.78922188
-36.511002 12.251 0.79400003 0.70626891 -0.056755818 -0.48910815 0.86096674
-36.521 12.126 0.79299998 0.70378625 -0.032092556 -0.36269322 0.79239601
-36.516998 11.998 0.792 0.65836781 0.0191315 -0.18451604 0.68400317
-36.521999 11.872 0.792 0.62058055 -0.042625226 -0.73614645 0.96376801
-36.530998 11.748 0.79100001 0.57430172 0.037502848 -0.79080212 0.97805774
-36.507 11.678 0.79100001 0.56649238 0.026646381 -0.79627126 0.97758454
-36.508999 11.552 0.79000002 0.70141709 0.018923772 -0.45348701 0.83546066
-36.528 11.432 0.79000002 0.72783816 -0.0022823606 -0.42476103 0.84271914
-36.529999 11.306 0.78899997 0.72714657 -0.0090179145 -0.41835314 0.83895344
-36.546001 11.186 0.78899997 0.74258238 -0.00094319694 -0.40597361 0.84631205
-36.554001 11.063 0.78899997 0.74327409 0.0070854947 -0.41066641 0.84920758
-36.551998 10.937 0.78799999 0.77579618 0.027825251 -0.39260444 0.86992657
-36.563 10.815 0.78799999 0.76250374 0.024716442 -0.41001293 0.86610246
-36.555 10.75 0.787 0.8013441 0.01464224 -0.38681713 0.88994062
-36.549 10.624 0.787 0.80139351 0.012284685 -0.39737749 0.89459008
-36.547001 10.499 0.78600001 0.81362712 0.017185029 -0.38914418 0.90206295
-36.57 10.381 0.78600001 0.81329536 0.0091657322 -0.38336939 0.89916933
-36.57 10.257 0.78500003 0.79117048 0.0049605947 -0.40843698 0.89039099
-36.575001 10.135 0.78500003 0.82872093 0.015597286 -0.38650122 0.91455173
-36.592999 10.016 0.78500003 0.13192487 -0.05574796 0.32361534 0.35389107
-36.623001 8.2519999 0.77899998 0.051487923 0.10432813 -0.24067748 0.26732194
-36.630001 8.132 0.778 0.048877746 0.13621461 -0.22881821 0.270742
-36.636002 7.7719998 0.77700001 0.052434206 0.16893499 -0.18223976 0.25396791
-36.674 7.6599998 0.778 0.06560269 0.1972539 -0.20399462 0.29125011
-36.646999 7.5939999 0.77700001 0.093401819 0.21261668 -0.238748 0.33306211
-36.645 7.474 0.77700001 0.098303169 0.20628241 -0.21883187 0.31639111
-36.657001 7.3559999 0.77600002 0.10042939 0.19619396 -0.18143789 0.28547826
-36.644001 7.2340002 0.77600002 0.10044011 0.18657286 -0.18304886 0.28000811
-36.654999 7.1160002 0.77600002 0.10475966 0.19714451 -0.17670535 0.28471974
-36.660999 6.9980001 0.77499998 0.11294371 0.18968296 -0.19714028 0.2959733
-36.661999 6.8790002 0.77499998 0.11342788 0.18523572 -0.20531479 0.29888514
-36.660999 6.8189998 0.77499998 0.12294373 0.21343753 -0.20277849 0.31904522
-36.667999 6.7010002 0.77499998 0.1290023 0.2361986 -0.19695733 0.33350196
-36.671001 6.5830002 0.77399999 0.15812477 0.24305041 -0.22751209 0.36856303
-36.674 6.4650002 0.77399999 0.15768343 0.24282901 -0.22235008 0.36506101
-36.686001 6.348 0.77399999 0.15608072 0.30764019 -0.24661925 0.42405748
-36.689999 6.23 0.77399999 0.15122411 0.33843178 -0.23952183 0.4413338
-36.667999 6.1079998 0.773 0.15383109 0.36493754 -0.27861178 0.48421893
-36.620998 6.0409999 0.77200001 0.12623894 0.40119299 -0.27039164 0.5000037
-36.613998 5.921 0.77200001 0.13527489 0.41974491 -0.29654071 0.5314334
-36.352001 17.195999 0.61400002 0.57132548 -0.043180693 -0.35996681 0.67664874
-36.324001 17.042999 0.61299998 0.53818476 -0.21905611 -0.60659492 0.83999151
-36.332001 16.908001 0.61199999 0.5827654 -0.057741188 -0.35842252 0.68659759
-36.367001 16.785 0.61199999 0.59497273 -0.049907364 -0.37376496 0.70440298
-36.358002 16.643 0.611 0.59577191 -0.037881311 -0.37592798 0.70547926
-36.344002 16.499001 0.611 0.59482908 -0.0049237567 -0.36716148 0.69903749
-36.355999 16.434999 0.61000001 0.59599471 -0.00017781416 -0.37214959 0.70264149
-36.335999 16.289 0.61000001 0.547647 -0.014145149 -0.70714533 0.89452326
-36.370998 16.167 0.60900003 0.56972653 -0.050635159 -0.67372227 0.88377255
-36.368 16.030001 0.60900003 0.51120746 -0.17078273 -0.71420258 0.89475423
-36.394001 15.905 0.60900003 0.53775537 -0.12188898 -0.71668839 0.90425658
-36.400002 15.771 0.60799998 0.49128714 -0.13880192 -0.76455212 0.91933072
-36.429001 15.648 0.60799998 0.48821041 -0.10491678 -0.78314269 0.92879993
-36.421001 15.577 0.60699999 0.47371745 -0.057041682 -0.81198704 0.94179881
-36.439999 15.45 0.60699999 0.46510321 -0.083921596 -0.80439299 0.93295872
-36.439999 15.315 0.60699999 0.49557042 -0.073751695 -0.78366178 0.93013716
-36.457001 15.188 0.60600001 0.51322782 -0.073449731 -0.77589178 0.93316972
-36.473 15.06 0.60600001 0.50450701 -0.068247244 -0.77961802 0.9311226
-36.5 14.937 0.60600001 0.50343174 -0.027488492 -0.77689898 0.92615938
-36.529999 14.816 0.60600001 0.53219342 -0.0041092765 -0.73222268 0.90520537
-36.41 14.568 0.60299999 0.62564939 0.027531859 -0.44531545 0.76844066
-36.435001 14.445 0.60299999 0.70038813 0.010175625 -0.40240055 0.80782008
-36.424 14.309 0.60299999 0.69883966 -0.027415868 -0.39267808 0.80207521
-36.436001 14.181 0.602 0.69821298 -0.03150833 -0.38956782 0.80016077
-36.437 14.05 0.602 0.69890583 -0.028937906 -0.39378661 0.80272949
-36.467999 13.93 0.602 0.75111413 -0.031291362 -0.36727008 0.83668327
-36.459 13.796 0.60100001 0.77908707 -0.0268839 -0.34653583 0.85310405
-36.459999 13.731 0.60100001 0.7790913 -0.025925254 -0.34623489 0.852956
-36.452 13.598 0.60000002 0.77912974 -0.016534194 -0.34405023 0.85187268
-36.478001 13.477 0.60000002 0.778696 -0.024056567 -0.34272686 0.85112154
-36.477001 13.346 0.60000002 0.7805655 -0.055645633 -0.38695419 0.87299055
-36.480999 13.218 0.59899998 0.66613746 -0.037710451 -0.4619031 0.81148976
-36.491001 13.092 0.59899998 0.69120187 -0.032880872 -0.47689816 0.84040052
-36.498001 12.965 0.59899998 0.67311859 0.069236882 -0.46873638 0.82316232
-36.476002 12.893 0.59799999 0.67028439 0.078908421 -0.37211397 0.77069873
-36.32 12.71 0.59600002 0.63885963 0.11444073 -0.28477034 0.70875418
-36.275002 12.566 0.59500003 0.63976872 0.10365845 -0.29074681 0.7103399
-36.257999 12.433 0.59500003 0.6594162 0.1202088 -0.35072061 0.75649506
-36.271999 12.311 0.59399998 0.68484038 0.11977086 -0.32144016 0.76594722
-36.227001 12.169 0.59299999 0.69461721 0.083450079 -0.33430567 0.77538204
-36.224998 12.042 0.59299999 0.65014815 0.15801722 -0.20809974 0.70069081
-36.174 11.962 0.59200001 0.67219794 0.18205781 -0.61386788 0.92834741
-36.161999 11.832 0.59200001 0.56962615 0.097026266 -0.79804337 0.98527217
-36.117001 11.567 0.58999997 0.24756873 0.039863367 0.041711986 0.25420317
-36.087002 11.432 0.58999997 0.66821319 0.086339921 -0.21326947 0.70671588
-36.082001 11.306 0.58899999 0.66821319 0.086339921 -0.21326947 0.70671588
-36.533001 11.258 0.59399998 0.73680848 -0.0095917862 -0.35797313 0.81922126
-36.535 11.133 0.59299999 0.78445029 0.0044244304 -0.32471466 0.84901202
-36.534 11.008 0.59299999 0.78606498 0.017760552 -0.33047503 0.85289353
-36.542999 10.885 0.59299999 0.75872171 0.020488702 -0.34544134 0.83391136
-36.556 10.764 0.59200001 0.76110554 0.023273081 -0.34824732 0.83731681
-36.548 10.637 0.59200001 0.80844927 0.014643289 -0.31668967 0.86838758
-36.567001 10.518 0.59200001 0.80894953 0.015986292 -0.31991863 0.87005907
-36.563 10.455 0.59100002 0.80876088 0.015397476 -0.31870013 0.86942571
-36.571999 10.333 0.59100002 0.13350675 -0.061125286 0.41244167 0.4377996
-36.566002 10.208 0.59100002 0.15230551 -0.056949731 0.43592054 0.46526009
-36.569 10.085 0.59100002 0.15934759 -0.060894653 0.446226 0.4777211
-36.581001 9.9650002 0.58999997 0.12733504 -0.05665838 0.41067529 0.43368027
-36.613998 9.8500004 0.58999997 0.12132064 -0.051762272 0.39659798 0.41795692
-36.650002 8.5139999 0.58700001 0.02477631 -0.040032431 -0.27261567 0.276651
-36.738998 8.4130001 0.588 -0.0082487762 -0.026035532 -0.26796204 0.26935023
-36.745998 8.2930002 0.588 -0.013100326 0.05114755 -0.27039468 0.27550131
-36.735001 8.1689997 0.58700001 -0.010707915 0.10899817 -0.33656099 0.35393301
-36.750999 8.1129999 0.588 -0.014165074 0.12880692 -0.34678531 0.37020522
-36.737999 7.9889998 0.58700001 -0.013139874 0.13016634 -0.34489882 0.36887822
-36.764 7.8740001 0.58700001 0.015841186 0.16795696 -0.41865492 0.45136729
-36.786999 7.7579999 0.58700001 0.048278689 0.19767405 -0.45157743 0.49530599
-36.667999 7.4920001 0.58499998 0.094350666 0.25080255 -0.22610012 0.35060695
-36.68 7.375 0.58499998 0.096001238 0.22954752 -0.196835 0.31725749
-36.652 7.309 0.58499998 0.099983305 0.18159463 -0.17984353 0.27443936
-36.668999 7.1929998 0.58499998 0.10763001 0.18201396 -0.1940598 0.28700611
-36.669998 7.0739999 0.58499998 0.11173171 0.18985596 -0.18524194 0.28782606
-36.689999 6.9580002 0.58499998 0.11156535 0.1781722 -0.18891154 0.28263003
-36.678001 6.8369999 0.58399999 0.11458522 0.1878475 -0.19319126 0.29281276
-36.692001 6.7199998 0.58399999 0.15719429 0.23838845 -0.21811906 0.35932577
-36.702999 6.6030002 0.58399999 0.18109843 0.25852022 -0.23598397 0.39410377
-36.696999 6.5419998 0.58399999 0.18077236 0.25024208 -0.23401624 0.38738012
-36.675999 6.4200001 0.583 0.18040675 0.28276002 -0.23323768 0.40853351
-36.679001 6.3010001 0.583 0.18674433 0.31892422 -0.24695002 0.44448894
-36.689999 6.1849999 0.583 0.19465852 0.27537194 -0.31823659 0.46367681
-36.603001 6.052 0.58200002 0.12407693 0.34899983 -0.19599286 0.41905749
-36.553001 5.9260001 0.58099997 0.13963509 0.40825617 -0.21624023 0.48262915
-36.248001 17.16 0.333 0.60294551 -0.039562397 -0.50456494 0.78720659
-36.275002 17.034 0.333 0.5991894 -0.068759792 -0.5022946 0.7848922
-36.273998 16.893999 0.333 0.59667677 -0.086408004 -0.52193493 0.79743689
-36.278 16.757 0.333 0.60601389 -0.052772544 -0.5302512 0.80697221
-36.285 16.622999 0.333 0.60687667 -0.021514101 -0.52372801 0.80190599
-36.300999 16.492001 0.33199999 0.60653949 0.011187425 -0.53983539 0.81205761
-36.299 16.354 0.33199999 0.60719562 0.0020608346 -0.5513351 0.8201592
-36.271999 16.273001 0.33199999 0.59268737 -0.015685115 -0.5375337 0.80029172
-36.287998 16.143999 0.33199999 0.58524448 -0.065162927 -0.53668255 0.79673427
-36.299999 16.013 0.33199999 0.53986096 -0.19514878 -0.62062442 0.84540379
-36.347 15.897 0.33199999 -0.28970298 0.22951332 -0.30816704 0.48121834
-36.567001 15.857 0.33199999 -0.24610348 0.24589936 -0.25248241 0.42986137
-36.644001 15.617 0.33199999 0.5108217 -0.072867207 -0.77919328 0.93455368
-36.688999 15.5 0.33199999 0.50744152 -0.040368542 -0.79054356 0.94025826
-36.616001 15.402 0.33199999 0.50778228 -0.0342893 -0.79232794 0.94170171
-36.667999 15.288 0.33199999 0.51456845 -0.055897471 -0.78391635 0.93937749
-36.673 15.155 0.33199999 0.51184624 -0.061831817 -0.78660345 0.94050771
-36.741001 15.048 0.33199999 0.51116639 -0.065179795 -0.78305924 0.93740129
-36.673 14.886 0.33199999 0.51123881 -0.035571158 -0.78671819 0.93891209
-36.384998 14.503 0.33000001 0.61801481 0.055942174 -0.56552017 0.83957422
-36.362999 14.428 0.33000001 0.69729578 0.035267197 -0.51884192 0.86986327
-36.375 14.301 0.33000001 0.69874996 0.015508114 -0.51634479 0.86896718
-36.382 14.172 0.33000001 0.70059711 -0.017673895 -0.49987137 0.86082524
-36.388 14.042 0.33000001 0.70061135 -0.027701523 -0.49490154 0.85822558
-36.394001 13.914 0.33000001 0.6931718 -0.015194717 -0.49792197 0.85360664
-36.408001 13.788 0.33000001 0.77889752 -0.029770859 -0.46696049 0.90863621
-36.405998 13.657 0.329 0.77977449 -0.018339954 -0.46310344 0.90711045
-36.404999 13.591 0.329 0.78036177 -0.0098682772 -0.45890224 0.90534699
-36.401001 13.459 0.329 0.7743746 -0.07149075 -0.47180507 0.90959716
-36.407001 13.332 0.329 0.74206519 -0.09685035 -0.49164656 0.89540893
-36.424 13.208 0.329 0.73849922 -0.11218011 -0.49630195 0.89681721
-36.644001 13.158 0.33000001 0.62434602 -0.15321346 -0.5550338 0.84932023
-36.213001 12.747 0.32800001 0.62762052 -0.1160132 -0.65245765 0.91272533
-36.438999 12.634 0.32800001 0.65603268 0.051981665 -0.61559141 0.90112919
-36.324001 12.466 0.32800001 0.64704466 -0.042944554 -0.66432691 0.92835408
-36.411999 12.368 0.32800001 0.57677442 -0.047746487 -0.76548016 0.95963967
-35.933998 11.268 0.32600001 0.24977243 0.50253516 -0.59948331 0.82116264
-36.448002 11.305 0.32699999 0.64231336 0.062336303 -0.13403645 0.65910399
-36.486 11.191 0.32699999 0.70528841 -0.056749467 -0.13919812 0.72112989
-36.476002 11.125 0.32699999 0.72919154 -0.1124073 -0.21374926 0.76814348
-36.477001 11 0.32699999 0.77355218 -0.021303996 -0.38629523 0.86490512
-36.481998 10.877 0.32699999 0.76112264 -0.0051727667 -0.42618328 0.872334
-36.494999 10.756 0.32699999 0.76310897 -0.021235317 -0.43279925 0.87755424
-36.487 10.629 0.32699999 0.8109889 -0.014733866 -0.41320497 0.91030681
-36.499001 10.508 0.32699999 0.81231439 0.010086164 -0.42020702 0.91462034
-36.506001 10.386 0.32600001 0.13729769 -0.059090495 0.31128722 0.34531447
-36.493999 10.321 0.32600001 0.1567848 -0.039412815 0.32672593 0.36453351
-36.499001 10.198 0.32600001 0.15667301 -0.036734391 0.32487112 0.36254254
-36.518002 10.08 0.32600001 0.16467246 -0.047065929 0.33855322 0.37940809
-36.509998 9.9549999 0.32600001 0.12473226 -0.058018781 0.30057377 0.33055848
-36.514 9.8330002 0.32600001 0.12365571 -0.079672895 0.30619729 0.33969882
-36.769001 8.4289999 0.32600001 -0.069096118 -0.12269625 -0.22143453 0.2624155
-36.860001 8.3280001 0.32600001 -0.049487442 -0.069673136 -0.25395572 0.26794934
-36.855 8.2049999 0.32600001 -0.028715611 0.011906907 -0.33087152 0.33232865
-36.867001 8.0860004 0.32600001 -0.0028416514 0.11784277 -0.39750922 0.41461858
-36.858002 8.0229998 0.32600001 0.016198277 0.14609489 -0.41768777 0.44279698
-36.870998 7.9050002 0.32600001 0.016181529 0.14861004 -0.41785967 0.44379443
-36.872002 7.7839999 0.32600001 0.010677457 0.34682524 -0.45434511 0.57169157
-36.606998 7.4879999 0.32499999 0.053337753 0.30380824 -0.25858572 0.40250582
-36.615002 7.3699999 0.32499999 0.078009695 0.20690137 -0.24469346 0.32980081
-36.610001 7.2490001 0.324 0.08423838 0.19989139 -0.23921661 0.32291991
-36.602001 7.1880002 0.324 0.10954449 0.18544942 -0.27642098 0.35042837
-36.611 7.0700002 0.324 0.11568895 0.19830646 -0.28795809 0.36827877
-36.615002 6.9520001 0.324 0.11584067 0.18542601 -0.28094965 0.35599798
-36.618999 6.8330002 0.324 0.11606854 0.17858951 -0.27028003 0.34411833
-36.633999 6.717 0.324 0.13177574 0.21129374 -0.26887134 0.36647195
-36.636002 6.599 0.324 0.19333199 0.22253338 -0.34553018 0.454191
-36.637001 6.48 0.324 0.19363594 0.2338618 -0.34782273 0.46169999
-36.637001 6.421 0.324 0.19224307 0.27448779 -0.35884029 0.49098605
-36.631001 6.3010001 0.324 0.18897122 0.28626484 -0.37947035 0.51152265
-36.631001 6.1830001 0.324 0.21098018 0.22117031 -0.47070527 0.56124187
-36.554001 6.052 0.324 0.16588038 0.17040503 -0.46829358 0.52521712
-36.917999 5.993 0.32499999 -0.39627504 0.73572344 -0.51389247 0.98102415
-36.388 17.021 0.14399999 0.60032642 -0.095506936 -0.52170527 0.80105543
-36.375 16.945 0.14399999 0.60376149 -0.043536603 -0.52521712 0.80142146
-36.387001 16.812 0.14399999 0.60914457 -0.041619532 -0.50857919 0.79463327
-36.396 16.677 0.14399999 0.60766667 -0.032644749 -0.51272643 0.79574674
-36.403999 16.542999 0.145 0.60860294 -0.02412645 -0.51459557 0.79736334
-36.417999 16.410999 0.145 0.6077686 -0.033983085 -0.52130461 0.80143374
-36.41 16.271 0.145 0.6056186 -0.073376201 -0.51076531 0.79563761
-36.423 16.139 0.145 0.5697127 -0.20470028 -0.51840979 0.79700905
-36.391998 16.056999 0.145 0.57968599 -0.15871637 -0.40724787 0.72600108
-36.645 16.031 0.14399999 -0.23117881 0.34980279 -0.49247333 0.64678872
-36.547001 15.852 0.145 -0.23320295 0.34560871 -0.44665429 0.61100656
-36.764 15.809 0.14399999 0.54496849 -0.19156358 -0.65529889 0.87355816
-36.806 15.69 0.14399999 0.56541234 -0.11103378 -0.67283493 0.88584787
-36.786999 15.546 0.145 0.57434231 -0.083665892 -0.66051137 0.87928623
-36.778 15.406 0.145 0.51880461 -0.026610073 -0.77782196 0.93534666
-36.741001 15.323 0.145 0.51437575 -0.059119932 -0.78118443 0.93719083
-36.82 15.085 0.145 0.51359272 -0.062991165 -0.77895021 0.93515176
-36.867001 14.969 0.145 0.51573622 -0.070638955 -0.7755456 0.93404746
-36.84 14.823 0.145 0.50947016 0.027039472 -0.79107815 0.94132656
-36.513 14.559 0.146 0.54503071 0.034331806 -0.75696754 0.93340075
-36.499001 14.421 0.146 0.60968524 0.054326527 -0.60593683 0.86129373
-36.479 14.347 0.146 0.62112176 0.021163234 -0.56229234 0.83810067
-36.480999 14.215 0.146 0.69581413 -0.0035410458 -0.53939229 0.88040555
-36.487999 14.086 0.146 0.69785845 -0.02777439 -0.52158892 0.8716839
-36.501999 13.96 0.146 0.68776202 -0.051390272 -0.53702348 0.87410057
-36.497002 13.827 0.146 0.75831044 -0.055020809 -0.55748618 0.94278991
-36.518002 13.704 0.146 0.70997763 -0.022129092 -0.67127979 0.97733027
-36.540001 13.581 0.146 0.70329785 -0.019155512 -0.68219078 0.97998929
-36.526001 13.511 0.146 0.76039529 0.0060200151 -0.55938542 0.94400704
-36.512001 13.375 0.146 0.74672031 -0.063211143 -0.49257395 0.89678091
-36.542 13.256 0.146 0.75123835 -0.056322228 -0.43208215 0.86846197
-36.536999 13.125 0.146 0.6455369 -0.065244548 -0.41234922 0.76876956
-35.754002 11.219 0.148 0.23515451 0.50635636 -0.5711922 0.79872084
-36.160999 11.222 0.148 0.22637777 0.53247625 -0.43495175 0.72385144
-36.870998 11.315 0.147 0.53755283 -0.051011421 -0.038326174 0.54132622
-36.984001 11.159 0.147 0.29083836 0.037854612 0.095833272 0.30855137
-36.882999 11.002 0.147 0.60775423 0.20876683 -0.084025353 0.64808106
-36.599998 10.793 0.147 0.7506299 0.096948221 -0.51504087 0.91548419
-36.59 10.665 0.147 0.77292633 0.016523853 -0.44945747 0.89425957
-36.594002 10.542 0.147 0.81318152 0.0079402197 -0.39682382 0.90487367
-36.598 10.419 0.148 0.15795201 -0.043176711 0.35279322 0.3889423
-36.612 10.298 0.148 0.1579119 -0.042362843 0.35022762 0.38651022
-36.587002 10.229 0.148 0.15756583 -0.05728177 0.36702037 0.40349987
-36.612 10.112 0.148 0.16520864 -0.061051674 0.37024796 0.41000581
-36.606998 9.9870005 0.148 0.16068292 -0.066456445 0.36332431 0.40279028
-36.622002 9.868 0.148 0.12475675 -0.070764944 0.31812122 0.34895995
-36.619999 9.7440004 0.148 0.098231405 -0.054621078 0.27780387 0.29967961
-36.964001 8.2360001 0.148 0.037944019 0.051812001 -0.24552199 0.25378197
-37 8.1219997 0.148 0.06546545 0.13637526 -0.24463923 0.28763223
-36.987999 7.9970002 0.148 0.065402061 0.15171203 -0.24985996 0.2995396
-37.006001 7.9400001 0.148 0.064758658 0.17467888 -0.21761063 0.28646252
-36.957001 7.8080001 0.148 0.084199935 0.26212528 -0.2866084 0.39742127
-36.959 7.6880002 0.148 0.12817097 0.34092367 -0.37768638 0.52469391
-36.737999 7.5219998 0.148 0.011538178 0.41074139 -0.21586275 0.46415335
-36.716999 7.3969998 0.148 0.055658013 0.32781035 -0.22821054 0.40328339
-36.706001 7.2750001 0.148 0.10970366 0.20638673 -0.27204266 0.35866082
-36.715 7.1570001 0.149 0.13520384 0.2208569 -0.30687875 0.40153757
-36.714001 7.0370002 0.149 0.16768396 0.22492841 -0.32702965 0.43088174
-36.703999 6.9759998 0.149 0.16703576 0.19279435 -0.31993508 0.40918097
-36.708 6.8569999 0.149 0.16640157 0.18907475 -0.31535938 0.4035967
-36.716999 6.7389998 0.149 0.19354013 0.21456549 -0.33451596 0.44203737
-36.736 6.6240001 0.149 0.19408396 0.22230943 -0.33326712 0.44514835
-36.735001 6.5040002 0.149 0.19385695 0.23485161 -0.34532869 0.46042123
-36.734001 6.3850002 0.149 0.24011055 0.26381877 -0.35836965 0.50565028
-36.75 6.2690001 0.149 0.25104845 0.21697816 -0.35002255 0.48230761
-36.731998 6.2069998 0.149 0.2484711 0.19672869 -0.32574996 0.45448112
-36.716 6.085 0.149 0.24535708 0.17690583 -0.30939159 0.43268803
-36.696999 5.9640002 0.149 0.25371781 0.16226433 -0.27097368 0.4051286
-36.780998 5.8590002 0.149 0.22909936 0.066450521 -0.23877814 0.33751622
-36.307999 16.996 -0.11 0.60748458 -0.012219077 -0.4048734 0.73014337
-36.320999 16.863001 -0.11 0.60246199 -0.039572645 -0.40207186 0.72538835
-36.294998 16.782 -0.109 0.60012931 -0.044549711 -0.39785177 0.72140551
-36.306 16.649 -0.109 0.59961224 -0.043441072 -0.39490005 0.71928298
-36.320999 16.518 -0.109 0.59883571 -0.019233784 -0.38525972 0.71231961
-36.313 16.377001 -0.108 0.59698993 -0.020011948 -0.37690189 0.70629489
-36.321999 16.243999 -0.108 0.59964806 -0.016747417 -0.38113081 0.7107172
-36.324001 16.107 -0.107 0.59661907 -0.038022339 -0.39114341 0.71441811
-36.342999 15.98 -0.107 0.55876756 -0.17543122 -0.34340736 0.67891526
-36.214001 15.855 -0.106 0.5781002 -0.11937919 -0.45454857 0.74502724
-36.439999 15.818 -0.107 -0.13049577 0.3884927 -0.65503943 0.77267867
-36.706001 15.797 -0.109 0.48923731 -0.2790879 -0.298895 0.63763738
-36.388 14.19 -0.102 0.67236102 -0.017870894 -0.28635579 0.73101872
-36.416 14.069 -0.102 0.67494816 -0.028792437 -0.294985 0.73715681
-36.418999 13.222 -0.1 0.67846215 -0.036204752 -0.23058625 0.71748984
-36.583 11.235 -0.096000001 0.68492591 0.063636273 -0.094673723 0.69436026
-36.608002 11.118 -0.096000001 0.66638744 0.075560287 -0.10402197 0.67867672
-36.613998 10.994 -0.094999999 0.7007885 0.13772801 -0.17970203 0.73645526
-36.597 10.926 -0.094999999 0.70519459 0.14767218 -0.21896985 0.75303006
-36.499001 10.772 -0.093999997 0.75310266 0.10515568 -0.3026779 0.81843466
-36.498001 10.647 -0.093999997 0.76049393 0.081545964 -0.3045707 0.82326424
-36.507999 10.526 -0.093999997 0.14516777 -0.04119014 0.47369903 0.49715298
-36.501999 10.4 -0.093000002 0.1452592 -0.059020437 0.47046134 0.49590072
-36.521999 10.281 -0.093000002 0.14622313 -0.060065966 0.46759197 0.4935903
-36.532001 10.161 -0.093000002 0.14613074 -0.058478087 0.4684236 0.49416044
-36.519001 10.095 -0.093000002 0.81685567 0.017144818 -0.27499574 0.86207294
-36.528 9.974 -0.093000002 0.15157467 -0.066389188 0.45972651 0.48860091
-36.535999 9.8529997 -0.092 0.084314972 -0.057928123 0.38698724 0.40027967
-36.910999 7.7459998 -0.090999998 0.060420036 0.35486883 -0.17839415 0.40175483
-36.853001 7.6739998 -0.090999998 -0.0036497712 0.42855233 -0.14176533 0.45140648
-36.630001 7.507 -0.089000002 0.014796019 0.40077931 -0.16062915 0.43202397
-36.627998 7.3870001 -0.089000002 0.065293163 0.25614718 -0.11439782 0.28803027
-36.650002 7.033 -0.088 0.11182311 0.20130025 -0.1484241 0.27396333
-36.648998 6.9130001 -0.088 0.12497681 0.19262663 -0.17304288 0.28752053
-36.627998 6.849 -0.088 0.17172936 0.19217895 -0.23075159 0.34593353
-36.650002 6.7340002 -0.088 0.23021978 0.24207735 -0.23940015 0.41099271
-36.651001 6.6160002 -0.088 0.22841269 0.25007284 -0.22977123 0.40927204
-36.658001 6.4980001 -0.088 0.22616503 0.24922648 -0.22022164 0.4021965
-36.669998 6.381 -0.088 0.22701065 0.27792209 -0.20296903 0.41227534
-36.669998 6.263 -0.086999997 0.21625932 0.30618632 -0.17989667 0.41578954
-36.661999 6.1430001 -0.086999997 0.21390419 0.27031896 -0.1621819 0.38095972
-36.638 6.0799999 -0.086999997 0.22267218 0.25720921 -0.14866708 0.37126997
-36.640999 5.9619999 -0.086999997 0.23273243 0.260957 -0.11411662 0.36781183
-36.709 5.855 -0.086999997 0.25948876 0.20682968 -0.13256264 0.35733148
-36.273998 17.034 -0.35600001 0.61835414 -0.10170922 -0.49034363 0.79570311
-36.311001 16.912001 -0.35600001 0.61379957 -0.038888384 -0.48705423 0.7845279
-36.32 16.778 -0.35499999 0.60822886 -0.038837828 -0.48034641 0.77600479
-36.311001 16.635 -0.354 0.6081444 -0.023218425 -0.47668299 0.77304941
-36.297001 16.559999 -0.354 0.60815948 -0.02468662 -0.47631893 0.77288234
-36.293999 16.421 -0.35299999 0.6091274 -0.0051069949 -0.46609527 0.76701176
-36.298 16.285999 -0.352 0.60972404 -0.024043432 -0.4544248 0.76081759
-36.308998 16.153999 -0.352 0.60765606 -0.028142402 -0.54175431 0.81457692
-36.312 16.018999 -0.35100001 0.56998038 -0.16176347 -0.60972035 0.85017878
-36.338001 15.894 -0.34999999 0.54074472 -0.19881913 -0.65864098 0.87506676
-36.417 15.793 -0.35100001 -0.15110074 0.38564336 -0.34684148 0.5402326
-36.574001 15.793 -0.35299999 -0.15621434 0.39659721 -0.57941568 0.71931553
-36.492001 11.008 -0.329 0.74911368 0.085476846 -0.27146858 0.80135685
-36.487999 10.882 -0.32800001 0.74202555 0.11658475 -0.30549669 0.81087738
-36.502998 10.762 -0.32800001 0.75634313 0.099445865 -0.31397986 0.82494104
-36.48 10.692 -0.32699999 0.76904565 0.067367561 -0.3456212 0.84582716
-36.484001 10.569 -0.32699999 0.79914999 0.03300409 -0.36652231 0.8798117
-36.488998 10.447 -0.32600001 0.15609509 -0.054882072 0.39573592 0.42893431
-36.488998 10.323 -0.32600001 0.15583518 -0.062380925 0.39898476 0.43285659
-36.501999 10.203 -0.32600001 0.16065261 -0.061209545 0.40052614 0.43586355
-36.526001 10.086 -0.32600001 0.8258785 0.010595467 -0.34673536 0.89577508
-36.521 9.9610004 -0.32499999 0.12680802 -0.07406985 0.36316469 0.39173359
-36.525002 9.8389997 -0.32499999 0.12717074 -0.068160631 0.36115447 0.38890976
-36.907001 7.9169998 -0.324 0.074338257 0.17265944 -0.19844076 0.27334264
-36.924 7.7989998 -0.32300001 0.081478626 0.21532235 -0.11816536 0.25877699
-36.886002 7.6700001 -0.32300001 0.040532231 0.41117632 -0.20047638 0.45923808
-36.610001 7.4330001 -0.31799999 0.062068462 0.3146646 -0.21533602 0.38631064
-36.603001 7.3119998 -0.31799999 0.087715894 0.20640345 -0.22715989 0.31921479
-36.611 7.1939998 -0.317 0.088071346 0.17384577 -0.20570098 0.2833581
-36.626999 7.0780001 -0.317 0.1499055 0.20021383 -0.27916852 0.37482303
-36.619999 6.9569998 -0.317 0.19338384 0.20337817 -0.32853952 0.43208587
-36.630001 6.8400002 -0.317 0.19809011 0.21587645 -0.32727465 0.43926191
-36.634998 6.7220001 -0.317 0.21308503 0.24112286 -0.32574105 0.45787847
-36.618 6.6589999 -0.31600001 0.21324754 0.25642872 -0.32807276 0.46782681
-36.631001 6.5430002 -0.31600001 0.22790581 0.25074828 -0.33356905 0.47548297
-36.638 6.4250002 -0.31600001 0.24953325 0.30228853 -0.32461861 0.50894248
-36.584999 6.2979999 -0.315 0.25112581 0.33027393 -0.31145614 0.51879668
-36.487999 6.1630001 -0.31299999 0.21181017 0.33860695 -0.26667741 0.48024479
-36.467999 6.0419998 -0.31299999 0.2298952 0.29389209 -0.24788521 0.44796365
-36.417 5.9159999 -0.31200001 0.2128949 0.049918607 -0.25613645 0.3367818
-36.556999 5.8800001 -0.31299999 0.19207816 -0.03231433 -0.28027821 0.34131232
-36.280998 17.052999 -0.63599998 0.60438752 -0.15719561 -0.54554492 0.82922494
-36.324001 16.934 -0.63499999 0.60444742 -0.15901789 -0.54537195 0.82950222
-36.698002 7.6420002 -0.58099997 0.0088947117 0.35695773 -0.075721256 0.36500913
-36.720001 7.526 -0.58099997 0.047238559 0.31670374 -0.14315228 0.35074964
-36.632 7.388 -0.57800001 0.075439185 0.24696237 -0.25613046 0.36370906
-36.619999 7.3260002 -0.57800001 0.13828626 0.22480093 -0.35871017 0.4453443
-36.634998 7.2090001 -0.57800001 0.13863534 0.20010862 -0.36012575 0.43468812
-36.630001 7.0890002 -0.57700002 0.15358207 0.18619543 -0.37190259 0.44335958
-36.629002 6.9689999 -0.57700002 0.18803045 0.19790164 -0.39813262 0.48273191
-36.652 6.8540001 -0.57700002 0.19533888 0.23369764 -0.37801132 0.4854528
-36.666 6.7379999 -0.57700002 0.22612816 0.25035787 -0.38546896 0.51224929
-36.662998 6.618 -0.57599998 0.26220098 0.28627339 -0.38735172 0.54840052
-36.655998 6.5570002 -0.57599998 0.29106617 0.29709283 -0.41188413 0.58534795
-36.657001 6.4390001 -0.57499999 0.29122537 0.31079793 -0.40661985 0.58885252
-36.588001 6.3080001 -0.57300001 0.25018489 0.3396731 -0.42013884 0.59538805
-36.576 6.1880002 -0.57300001 0.26383597 0.26464555 -0.47746485 0.60631621
-36.521999 6.0609999 -0.57099998 0.24846226 0.16823569 -0.54450834 0.62171221
-36.589001 5.954 -0.57200003 0.24241917 0.13289921 -0.56647694 0.63033748
-36.720001 5.8569999 -0.57499999 0.27532744 0.03021282 -0.5215795 0.59056175
-36.351002 17.003 -0.84200001 0.58216983 -0.21798089 -0.59643388 0.86149335
-36.662998 7.3860002 -0.77100003 0.14284396 0.21234849 -0.26051715 0.36519238
-36.683998 7.2709999 -0.77100003 0.15261459 0.18615246 -0.2914665 0.37801677
-36.685001 7.151 -0.76999998 0.19296089 0.19787368 -0.33889124 0.43730444
-36.689999 7.033 -0.76899999 0.19363737 0.2172958 -0.32425553 0.43572301
-36.698002 6.915 -0.76899999 0.23282117 0.25907731 -0.33866751 0.4858214
-36.682999 6.8520002 -0.76800001 0.23252517 0.26446268 -0.33083683 0.4831785
-36.629002 6.6040001 -0.76599997 0.29298985 0.28327486 -0.37029317 0.55064029
-36.630001 6.4860001 -0.76499999 0.29200619 0.31004724 -0.38074985 0.57128572
-36.637001 6.25 -0.764 0.33741379 0.30847651 -0.42020729 0.62095088
-36.52 6.112 -0.76099998 0.27720305 0.17900445 -0.3959021 0.51538587
-36.613998 6.0689998 -0.76300001 0.33095759 0.14354482 -0.43744057 0.56700295
-36.662998 5.9580002 -0.764 0.31504396 0.074834794 -0.41140381 0.52355134
-36.765999 5.8569999 -0.76599997 0.24535236 -0.038715839 -0.41985902 0.48783019
-36.620998 7.5029998 -0.99199998 0.13187739 0.19691268 -0.24638152 0.34186268
-36.629002 7.3839998 -0.99199998 0.13152677 0.17090851 -0.24860515 0.32911021
-36.625999 7.2639999 -0.991 0.15022093 0.15760717 -0.26772094 0.34508094
-36.639 7.1469998 -0.99000001 0.1575723 0.18160886 -0.26721472 0.3594642
-36.657001 7.0310001 -0.99000001 0.1635676 0.20883156 -0.26992455 0.3784498
-36.655998 6.9120002 -0.99000001 0.21310979 0.22313893 -0.33725137 0.45710531
-36.646 6.79 -0.98900002 0.29731354 0.26557118 -0.39456382 0.56089568
-36.609001 6.724 -0.98699999 0.26153573 0.2519421 -0.3936961 0.53560472
-36.647999 6.612 -0.98799998 0.32628816 0.27268881 -0.42406484 0.60054487
-36.632999 6.4910002 -0.986 0.32432312 0.25712296 -0.44401318 0.60699701
-36.662998 6.3769999 -0.98699999 0.31780666 0.32775128 -0.4644714 0.65127236
-36.651001 6.257 -0.986 0.34210193 0.33843172 -0.42434609 0.64159125
-36.438 6.1030002 -0.97799999 0.24818748 0.19027138 -0.34919024 0.46875799
-36.597 6.0110002 -0.98299998 0.35225126 0.1960977 -0.32832056 0.51993233
-36.652 5.961 -0.98400003 0.32499719 0.10318631 -0.32945573 0.47414309
-36.737999 5.8569999 -0.986 -0.38006395 0.72830534 -0.38228974 0.90610301
-36.637001 7.6059999 -1.238 0.092835754 0.15207641 -0.29749507 0.34676942
-36.639999 7.3070002 -1.2359999 0.14868677 0.17781022 -0.31985155 0.39500538
-36.646999 7.1890001 -1.2359999 0.15465099 0.18619899 -0.30982578 0.39316538
-36.66 7.072 -1.235 0.16298735 0.19540997 -0.32453105 0.41239583
-36.669998 6.9549999 -1.235 0.25320163 0.20799814 -0.42162567 0.53398734
-36.666 6.835 -1.234 0.32525998 0.25272396 -0.43421698 0.59850466
-36.675999 6.717 -1.233 0.32454604 0.26098841 -0.44258025 0.607719
-36.685001 6.5999999 -1.233 0.32441908 0.25018999 -0.44158089 0.60235906
-36.695999 6.4829998 -1.233 0.32533014 0.26892671 -0.43542358 0.60642803
-36.692001 6.4229999 -1.232 0.32532501 0.27183771 -0.43525019 0.60759759
-36.703999 6.3060002 -1.232 0.33568192 0.37426886 -0.42187187 0.65630436
-36.639 6.177 -1.228 0.33084619 0.3948133 -0.41874537 0.66384065
-36.523998 6.04 -1.223 0.30852443 0.31770155 -0.31667894 0.54443288
-36.612 5.9359999 -1.226 0.27920711 0.011395931 -0.38455507 0.47536206
-36.959999 5.8730001 -1.239 -0.2462483 0.77991331 -0.39280036 0.90730101
-37.158001 5.7849998 -1.2460001 -0.28113079 0.74501932 -0.54494011 0.9649083
