# .PCD v0.7 - Point Cloud Data file format
VERSION 0.7
FIELDS x y z normal_x normal_y normal_z curvature
SIZE 4 4 4 4 4 4 4
TYPE F F F F F F F
COUNT 1 1 1 1 1 1 1
WIDTH 651
HEIGHT 1
VIEWPOINT 0 0 0 1 0 0 0
POINTS 651
DATA ascii
-2.944 4.1209998 -1.05 -0.039671142 0.4983739 -0.69359738 0.85500157
-2.9719999 4.1329999 -1.056 -0.034087531 0.50085938 -0.69506001 0.8573975
-2.9809999 4.1170001 -1.054 -0.029508682 0.51618028 -0.68932921 0.86167723
-2.99 4.1170001 -1.056 -0.032061998 0.51420969 -0.69352961 0.8639577
-3.0179999 4.1279998 -1.062 -0.023528887 0.50572908 -0.69485414 0.8597312
-3.0339999 4.1220002 -1.062 -0.01844053 0.51073194 -0.69701433 0.86430097
-3.049 4.1149998 -1.063 -0.012729935 0.51270074 -0.69609016 0.86461878
-3.075 4.1230001 -1.068 -0.010339478 0.5136776 -0.69413561 0.86359471
-3.079 4.1020002 -1.0650001 -0.011421679 0.513448 -0.69453466 0.8637926
-3.102 4.105 -1.069 -0.010013629 0.5137347 -0.69404215 0.86354971
-3.119 4.1139998 -1.073 -0.0022052526 0.51790875 -0.68485451 0.85863847
-3.1289999 4.1009998 -1.072 -0.00011411682 0.51971 -0.68052536 0.85627872
-3.154 4.1069999 -1.076 0.0019230358 0.5202477 -0.67930096 0.85563493
-3.171 4.1009998 -1.0779999 0.018058863 0.51947004 -0.68158644 0.85716701
-3.188 4.0970001 -1.08 0.018088296 0.51949763 -0.68151641 0.85712868
-3.198 4.0830002 -1.0779999 0.020024968 0.51979572 -0.6807074 0.85670948
-3.2260001 4.0929999 -1.084 0.03374324 0.51489335 -0.69171369 0.86297256
-3.233 4.0869999 -1.084 0.035816483 0.51401734 -0.69354522 0.86400324
-3.253 4.086 -1.087 0.04702564 0.51646179 -0.68609983 0.86004484
-3.2839999 4.099 -1.094 0.052395493 0.51635325 -0.68533844 0.85968292
-3.2909999 4.0809999 -1.091 0.054780524 0.51734465 -0.68238038 0.85807306
-3.312 4.0809999 -1.094 0.059598267 0.51443696 -0.68837452 0.86142719
-3.332 4.0799999 -1.097 0.070680171 0.51720583 -0.67847568 0.85605305
-3.3429999 4.066 -1.096 0.078938805 0.51708233 -0.67430252 0.85339868
-3.362 4.0760002 -1.101 0.083060406 0.51485771 -0.67859292 0.85584217
-3.382 4.0739999 -1.104 0.084170192 0.5138188 -0.68081427 0.85708952
-3.395 4.0640001 -1.104 0.080434248 0.51402986 -0.6815809 0.85746658
-3.4119999 4.059 -1.105 0.081626862 0.51471698 -0.67945147 0.85630065
-3.4579999 4.0869999 -1.117 0.097661152 0.50685394 -0.68656856 0.85896158
-3.4630001 4.0669999 -1.114 0.099786088 0.50622326 -0.68725348 0.8593815
-3.4809999 4.0619998 -1.1160001 0.10438012 0.50483185 -0.68870473 0.86027002
-3.5179999 4.092 -1.127 0.10561427 0.49838448 -0.70284319 0.86806107
-3.5120001 4.059 -1.12 0.093328103 0.50463712 -0.69339341 0.86264896
-3.543 4.0679998 -1.127 0.11216724 0.48622176 -0.70722318 0.86553895
-3.5580001 4.0599999 -1.127 0.11339249 0.48875105 -0.7012552 0.86226118
-3.575 4.053 -1.1289999 0.10244182 0.48988062 -0.70294964 0.86291111
-3.596 4.052 -1.132 0.090067446 0.50455892 -0.690153 0.85965282
-3.642 4.0770001 -1.143 0.093986422 0.51014334 -0.69208503 0.86490542
-3.645 4.0679998 -1.142 0.089875445 0.51119816 -0.6910525 0.86426544
-3.661 4.0599999 -1.143 0.088748358 0.50654364 -0.69190395 0.86208689
-3.704 4.0809999 -1.154 0.074136443 0.53921384 -0.68075967 0.87159705
-3.7149999 4.0679998 -1.153 0.073399901 0.53937632 -0.68058413 0.87149823
-3.737 4.066 -1.156 0.072284885 0.53892064 -0.68203127 0.87225413
-3.7809999 4.0869999 -1.1670001 0.074321821 0.52440077 -0.69384801 0.87289459
-3.7820001 4.0630002 -1.163 0.067222916 0.5414421 -0.67722529 0.86966234
-3.8150001 4.085 -1.1720001 0.06089443 0.52871221 -0.68688095 0.86893624
-3.842 4.0890002 -1.177 0.065391555 0.52578747 -0.68960726 0.86964744
-3.8629999 4.085 -1.179 0.057587788 0.53307343 -0.67310774 0.8605566
-3.9000001 4.098 -1.187 0.047215931 0.53215599 -0.67710578 0.86249149
-3.9130001 4.086 -1.187 0.050303422 0.52581239 -0.67858416 0.8599335
-3.944 4.092 -1.193 0.048274998 0.52542967 -0.67982411 0.86056244
-3.967 4.0900002 -1.197 0.042869493 0.52261323 -0.68735975 0.86453789
-3.9849999 4.0949998 -1.201 0.050395377 0.52331913 -0.6847809 0.86332351
-3.9949999 4.0799999 -1.2 0.053919308 0.52134538 -0.68903124 0.86572069
-4.0190001 4.079 -1.2029999 0.054865889 0.52135777 -0.68366587 0.86152375
-4.059 4.0929999 -1.212 0.062488206 0.5242883 -0.68554521 0.86530644
-4.0749998 4.0830002 -1.2130001 0.066175289 0.52148014 -0.69136584 0.8685087
-4.1110001 4.0939999 -1.221 0.086269826 0.51728195 -0.69524741 0.87085712
-4.1329999 4.0900002 -1.224 0.096496537 0.51332378 -0.70043445 0.87373984
-4.151 4.0949998 -1.228 0.097889014 0.51586676 -0.69635814 0.87213272
-4.1789999 4.0970001 -1.233 0.1145877 0.51355356 -0.69463062 0.87142372
-4.2020001 4.0929999 -1.2359999 0.12512073 0.50913209 -0.69938123 0.87407368
-4.2340002 4.099 -1.242 0.13097952 0.503636 -0.70809209 0.87874871
-4.277 4.1139998 -1.252 0.12995459 0.50284028 -0.71024024 0.87987375
-4.3150001 4.1240001 -1.26 0.14315127 0.49399659 -0.72062409 0.88533837
-4.335 4.1170001 -1.262 0.14912289 0.49082178 -0.72254378 0.88612252
-4.3509998 4.1059999 -1.263 0.15065312 0.5070411 -0.72179109 0.89485723
-4.3899999 4.1300001 -1.273 0.15406603 0.50414467 -0.72496629 0.89636731
-4.4250002 4.1360002 -1.28 0.16352317 0.50290501 -0.7218281 0.89481235
-4.4299998 4.1160002 -1.278 0.16689523 0.50131184 -0.7227245 0.89526439
-4.4720001 4.1279998 -1.2869999 0.17015201 0.49920478 -0.72142053 0.89364684
-4.5009999 4.1279998 -1.2920001 0.17751262 0.49570608 -0.72091573 0.8927232
-4.5339999 4.1329999 -1.298 0.18389855 0.48455581 -0.7195493 0.8867718
-4.5890002 4.1560001 -1.311 0.18383445 0.4823373 -0.72369337 0.8889187
-4.632 4.1810002 -1.322 0.1477935 0.48869419 -0.7321521 0.89258707
-0.36300001 5.0869999 -1.1 0.42586046 -0.027215257 -0.37972516 0.57121712
-0.373 5.0019999 -1.08 0.42718226 -0.040734887 -0.38430831 0.57605284
-0.37 4.848 -1.043 0.42721131 -0.053990297 -0.37109601 0.56845117
-0.37799999 4.744 -1.0190001 0.42192137 -0.081251286 -0.35815322 0.55936855
-0.389 4.691 -1.006 0.4142538 -0.10042351 -0.34039366 0.54548961
-0.40000001 4.645 -0.995 0.4122932 -0.11600377 -0.34167916 0.5478934
-0.412 4.6170001 -0.98900002 0.40813157 -0.13305052 -0.33884463 0.54689074
-0.42199999 4.5650001 -0.977 0.39344731 -0.17087609 -0.32583043 0.53866953
-0.435 4.5479999 -0.97299999 0.38781241 -0.18442488 -0.31265986 0.53119409
-0.442 4.4650002 -0.95300001 0.36719936 -0.22222218 -0.29995644 0.52363342
-0.46799999 4.375 -0.93199998 0.31888098 -0.29975471 -0.29614869 0.52843356
-0.48199999 4.3790002 -0.93400002 0.30984959 -0.31213301 -0.29641828 0.53037494
-0.493 4.3520002 -0.92799997 0.27500537 -0.35436025 -0.29952681 0.53936577
-0.505 4.329 -0.92299998 0.23304868 -0.39364046 -0.30198598 0.54814237
-0.51700002 4.3179998 -0.92000002 0.22616339 -0.39787573 -0.29985946 0.54714775
-0.523 4.3080001 -0.91799998 0.20999333 -0.40791589 -0.29641157 0.54621643
-0.537 4.3140001 -0.92000002 0.20554641 -0.40091583 -0.29745588 0.539873
-0.55299997 4.3270001 -0.92400002 0.20102945 -0.40385959 -0.29729146 0.54027551
-0.56199998 4.289 -0.91500002 0.18115589 -0.41802251 -0.30073136 0.54589343
-0.579 4.3119998 -0.921 0.17886911 -0.41869438 -0.30191532 0.54630762
-0.59200001 4.3099999 -0.921 0.17816891 -0.41874334 -0.30116129 0.54569978
-0.60500002 4.303 -0.91900003 0.1690302 -0.42252961 -0.2986024 0.54430312
-0.611 4.3000002 -0.91900003 -0.24157532 0.39781916 -0.6957202 0.83704555
-0.625 4.296 -0.91799998 -0.23712538 0.39918333 -0.69713318 0.83759803
-0.63700002 4.2880001 -0.917 -0.23601696 0.39987648 -0.69672716 0.83727771
-0.64999998 4.2820001 -0.91600001 -0.22405986 0.40794188 -0.69044185 0.83266401
-0.671 4.3299999 -0.92799997 -0.22488335 0.40599278 -0.69395238 0.83484882
-0.68099999 4.3049998 -0.92299998 -0.22046255 0.4062947 -0.69724327 0.83655679
-0.69499999 4.303 -0.92299998 -0.1909758 0.42065135 -0.68926793 0.82976478
-0.70200002 4.3060002 -0.92400002 -0.1836535 0.42136556 -0.6928969 0.83149481
-0.713 4.2880001 -0.92000002 -0.18256629 0.42135501 -0.69366789 0.83189279
-0.727 4.29 -0.921 -0.17569374 0.42298868 -0.69457489 0.83199883
-0.741 4.289 -0.921 -0.17470506 0.42416725 -0.692559 0.83070916
-0.75400001 4.2849998 -0.921 -0.15625808 0.4286474 -0.69340974 0.83004349
-0.76899999 4.2919998 -0.92299998 -0.15608554 0.42834371 -0.69419515 0.83051062
-0.78100002 4.2779999 -0.92000002 -0.14311796 0.43337363 -0.69350189 0.83020502
-0.78600001 4.2690001 -0.91799998 -0.14311796 0.43337363 -0.69350189 0.83020502
-0.80000001 4.2729998 -0.92000002 -0.13435382 0.44319332 -0.69168168 0.83240306
-0.81800002 4.2950001 -0.926 -0.1334177 0.44374272 -0.69082212 0.83183116
-0.82499999 4.256 -0.917 -0.12422147 0.44525015 -0.69123018 0.83155149
-0.84100002 4.2670002 -0.92000002 -0.11337554 0.4474211 -0.69020379 0.83031374
-0.85399997 4.2620001 -0.92000002 -0.11083296 0.44744954 -0.6910097 0.83065605
-0.87 4.2709999 -0.92299998 -0.1122229 0.44757196 -0.69024658 0.83027405
-0.88300002 4.2659998 -0.92199999 -0.10161841 0.4489699 -0.69028717 0.82969677
-0.89099997 4.2750001 -0.92400002 -0.096820377 0.45023704 -0.68858922 0.82839769
-0.90499997 4.2719998 -0.92400002 -0.09660089 0.45122272 -0.6862576 0.82697225
-0.91799998 4.2690001 -0.92400002 -0.091295913 0.45204729 -0.68559325 0.82626855
-0.93400002 4.2750001 -0.92699999 -0.08688543 0.4537493 -0.68489343 0.82614559
-0.94599998 4.2670002 -0.92500001 -0.082362622 0.45441613 -0.68419147 0.82546687
-0.95899999 4.2639999 -0.92500001 -0.08084327 0.45378456 -0.68604374 0.82650596
-0.977 4.2820001 -0.93099999 -0.080809698 0.45336974 -0.68706483 0.82712299
-0.98299998 4.276 -0.93000001 -0.079482749 0.4532811 -0.68689215 0.82680231
-0.99599999 4.2690001 -0.92900002 -0.077432714 0.45330748 -0.68719083 0.82687044
-1.008 4.2610002 -0.92699999 -0.076363675 0.45266175 -0.68714368 0.82637799
-1.024 4.2690001 -0.93000001 -0.078015193 0.4525744 -0.68707085 0.82642382
-1.033 4.2480001 -0.926 -0.077424265 0.45139056 -0.69003737 0.82819051
-1.056 4.2849998 -0.93599999 -0.086437449 0.45029557 -0.69089717 0.82920229
-1.064 4.257 -0.93000001 -0.085992619 0.45034671 -0.69087183 0.82916272
-1.072 4.263 -0.93099999 -0.087360881 0.45028859 -0.69071043 0.82913965
-1.081 4.243 -0.92699999 -0.085927039 0.44936055 -0.68973458 0.82767272
-1.1 4.2600002 -0.93199998 -0.083922759 0.44780466 -0.69385326 0.83006287
-1.115 4.2620001 -0.93400002 -0.082197323 0.45637977 -0.69650704 0.83675623
-1.127 4.2550001 -0.93300003 -0.072320081 0.45430827 -0.70293891 0.8400889
-1.141 4.2550001 -0.93400002 -0.060296364 0.45474422 -0.70341158 0.83977127
-1.151 4.2379999 -0.93099999 -0.058575749 0.45558694 -0.70167947 0.83865649
-1.164 4.2610002 -0.93699998 -0.061266728 0.45525178 -0.70219016 0.83909404
-1.176 4.25 -0.935 -0.064916514 0.45574296 -0.70070344 0.83839196
-1.187 4.2360001 -0.93199998 -0.063169934 0.45088974 -0.7114957 0.84469998
-1.206 4.2529998 -0.93800002 -0.053808071 0.44406781 -0.72607529 0.85280532
-1.214 4.2329998 -0.93300003 -0.054552384 0.44403398 -0.7261008 0.85285664
-1.233 4.2480001 -0.93800002 -0.052570321 0.44175002 -0.73060715 0.85539085
-1.248 4.2509999 -0.94 -0.055814855 0.44055298 -0.73270088 0.85676879
-1.252 4.2399998 -0.93800002 -0.056482095 0.44047189 -0.73281252 0.85686636
-1.266 4.2379999 -0.93800002 -0.059441499 0.44108227 -0.73145473 0.85622013
-1.286 4.256 -0.94400001 -0.053119052 0.43252224 -0.7473706 0.86513579
-1.2920001 4.2259998 -0.93699998 -0.059691515 0.43957698 -0.7342664 0.85786837
-1.307 4.2290001 -0.93900001 -0.058720779 0.43798056 -0.73729259 0.85957867
-1.324 4.2360001 -0.94199997 -0.062219091 0.43314314 -0.74570227 0.86461323
-1.339 4.2379999 -0.94300002 -0.060939457 0.42954153 -0.75201488 0.8681854
-1.347 4.2410002 -0.94400001 -0.054256476 0.42393541 -0.76171565 0.87342757
-1.359 4.2329998 -0.94400001 -0.049879037 0.42257515 -0.75573623 0.86729169
-1.376 4.2399998 -0.94599998 -0.050700251 0.41919222 -0.76123571 0.87050128
-1.388 4.2319999 -0.94499999 -0.054832198 0.41607726 -0.76584458 0.87329537
-1.402 4.2280002 -0.94499999 -0.057204667 0.41678667 -0.76447046 0.87258154
-1.416 4.2249999 -0.94599998 -0.06518884 0.4182156 -0.76117802 0.87094533
-1.424 4.2059999 -0.94199997 -0.063999906 0.42649859 -0.74744016 0.86293906
-1.438 4.2259998 -0.94800001 -0.064827986 0.41896415 -0.76001298 0.87026054
-1.449 4.2140002 -0.94599998 -0.068942271 0.42224267 -0.75397182 0.86689991
-1.461 4.2059999 -0.94499999 -0.06966722 0.42580059 -0.74777478 0.86332315
-1.478 4.2140002 -0.94800001 -0.070792258 0.42204118 -0.7538501 0.86684501
-1.4960001 4.2220001 -0.95099998 -0.078035191 0.41534296 -0.76347613 0.87263685
-1.507 4.2119999 -0.94999999 -0.072261669 0.42312828 -0.75175095 0.86567241
-1.516 4.1939998 -0.94700003 -0.072036676 0.43607888 -0.74944985 0.87007421
-1.54 4.2210002 -0.95499998 -0.075551972 0.42843187 -0.7485674 0.86580318
-1.568 4.2350001 -0.95999998 -0.081420377 0.42024651 -0.76097035 0.87310499
-1.575 4.2140002 -0.95599997 -0.07589633 0.43463248 -0.75116038 0.871153
-1.591 4.2140002 -0.958 -0.072442874 0.44007006 -0.74237168 0.86604005
-1.6059999 4.2150002 -0.95899999 -0.073976249 0.44004706 -0.74210334 0.86592799
-1.623 4.2189999 -0.96100003 -0.073976249 0.44004706 -0.74210334 0.86592799
-1.637 4.2160001 -0.96200001 -0.063369773 0.4419761 -0.72930574 0.85512888
-1.6440001 4.2150002 -0.96200001 -0.071543708 0.44388962 -0.72385401 0.85212743
-1.6569999 4.21 -0.96200001 -0.072416469 0.44514775 -0.72114038 0.85055518
-1.677 4.2210002 -0.96600002 -0.073769949 0.4444114 -0.7222901 0.85126173
-1.692 4.2210002 -0.96799999 -0.064890981 0.44907409 -0.7147857 0.84663862
-1.7029999 4.2080002 -0.96600002 -0.066261768 0.44930315 -0.71401429 0.84621531
-1.722 4.2189999 -0.97000003 -0.064701743 0.44745925 -0.7181648 0.84862643
-1.734 4.21 -0.96899998 -0.052091286 0.44151413 -0.71874869 0.84513187
-1.7410001 4.2090001 -0.97000003 -0.055366501 0.44073188 -0.71967816 0.84572262
-1.757 4.2090001 -0.97100002 -0.04499273 0.44726142 -0.70793116 0.83859026
-1.772 4.2090001 -0.972 -0.029912151 0.44720474 -0.70221668 0.83306366
-1.788 4.2090001 -0.97399998 -0.030619388 0.44692281 -0.70276016 0.83339632
-1.796 4.191 -0.97100002 -0.029559689 0.44605732 -0.70483029 0.83464164
-1.812 4.1919999 -0.972 -0.028712051 0.4478457 -0.70091522 0.83226937
-1.83 4.1989999 -0.97600001 -0.034242246 0.44742322 -0.70112038 0.8324241
-1.835 4.191 -0.97399998 -0.034956362 0.44835794 -0.69887573 0.83106804
-1.854 4.1989999 -0.97799999 -0.030689484 0.44793162 -0.70046693 0.83200872
-1.865 4.1880002 -0.977 -0.031611487 0.45432204 -0.69928658 0.83451152
-1.88 4.1859999 -0.97799999 -0.031130986 0.45402071 -0.70004559 0.83496571
-1.89 4.1739998 -0.97600001 -0.020249661 0.44629779 -0.69671297 0.82764769
-1.9119999 4.1880002 -0.98100001 -0.022064034 0.44490334 -0.69968569 0.82944918
-1.928 4.1869998 -0.98299998 -0.020347174 0.44800445 -0.69267428 0.82517856
-1.942 4.2020001 -0.98699999 -0.019870549 0.4453356 -0.69898975 0.82903874
-1.959 4.2030001 -0.98900002 -0.0053473571 0.43901438 -0.71419179 0.83835083
-1.971 4.1950002 -0.98900002 -0.00031246943 0.44115022 -0.70984381 0.83575827
-1.984 4.1890001 -0.98900002 -3.406452e-05 0.4397141 -0.71292657 0.8376233
-2.0050001 4.198 -0.99299997 0.027549352 0.42213526 -0.76470375 0.87391585
-2.013 4.1810002 -0.99000001 0.024251774 0.42655167 -0.75791502 0.87004
-2.033 4.1890001 -0.99400002 0.026352603 0.41497383 -0.77595371 0.88034189
-2.033 4.1719999 -0.99000001 0.026616517 0.4148083 -0.77617234 0.88046461
-2.056 4.1859999 -0.99599999 0.026744187 0.41222492 -0.78000569 0.88264006
-2.069 4.1799998 -0.99599999 0.027103323 0.41512555 -0.77563751 0.88015759
-2.082 4.1729999 -0.99599999 0.016952492 0.416177 -0.77505875 0.8798902
-2.0969999 4.1700001 -0.99699998 0.011564982 0.41427171 -0.77830571 0.88176787
-2.1210001 4.1849999 -1.002 0.0092336014 0.39196292 -0.81282365 0.90244251
-2.1359999 4.1810002 -1.003 0.0047519826 0.38977876 -0.81567812 0.90403587
-2.1440001 4.1659999 -1.001 -0.023235716 0.41549966 -0.81753933 0.91736054
-2.161 4.1820002 -1.006 -0.021017447 0.42192969 -0.80964172 0.91322839
-2.177 4.1820002 -1.008 -0.019895187 0.42845169 -0.80125713 0.90883422
-2.1900001 4.1729999 -1.007 -0.021171741 0.43162519 -0.79701912 0.90663558
-2.2079999 4.177 -1.01 -0.033642136 0.42434707 -0.80615211 0.91163778
-2.2179999 4.1630001 -1.008 -0.0397394 0.42556176 -0.80419743 0.91072255
-2.2379999 4.1700001 -1.012 -0.046500821 0.42821538 -0.80281532 0.91106707
-2.2449999 4.1680002 -1.013 -0.044760004 0.43122941 -0.79903722 0.90907794
-2.2609999 4.1659999 -1.0140001 -0.037390482 0.42227715 -0.79948366 0.90492553
-2.2739999 4.1589999 -1.0140001 -0.027795019 0.42042732 -0.80272949 0.90659052
-2.2969999 4.1690001 -1.0190001 -0.034762114 0.42162544 -0.80519861 0.90957201
-2.3099999 4.1609998 -1.0190001 -0.03510328 0.42891055 -0.79553676 0.90447509
-2.326 4.1609998 -1.021 -0.034696043 0.42522374 -0.80050993 0.90710264
-2.3540001 4.1789999 -1.028 -0.024687815 0.41404238 -0.81549782 0.91491932
-2.346 4.1500001 -1.021 -0.015860669 0.42433259 -0.80290294 0.90827465
-2.3670001 4.1560001 -1.024 -0.028209921 0.42534137 -0.80090964 0.90728569
-2.3889999 4.1659999 -1.029 -0.021198306 0.43063638 -0.79424518 0.90372699
-2.404 4.1609998 -1.03 -0.025896825 0.44126263 -0.79373336 0.90851307
-2.4070001 4.1350002 -1.025 -0.022926498 0.44840783 -0.78393334 0.90340841
-2.4389999 4.1609998 -1.034 -0.035163939 0.45806852 -0.76789218 0.89483052
-2.4519999 4.1539998 -1.034 -0.035088945 0.45658726 -0.77019715 0.89605069
-2.461 4.1529999 -1.035 -0.034674603 0.45543233 -0.77201569 0.89701128
-2.483 4.1599998 -1.039 -0.039825276 0.45629314 -0.77006185 0.89598256
-2.49 4.1430001 -1.036 -0.029869093 0.46549004 -0.75654256 0.88877994
-2.506 4.1399999 -1.038 -0.030506043 0.46948171 -0.74974281 0.8851316
-2.527 4.145 -1.0420001 -0.037374292 0.46932143 -0.74919111 0.88484281
-2.539 4.1360002 -1.041 -0.037057105 0.47647551 -0.73649919 0.87797105
-2.556 4.1339998 -1.043 -0.032748647 0.47082055 -0.74717736 0.88375247
-2.582 4.1479998 -1.049 -0.038743813 0.47246316 -0.74351305 0.88177902
-2.5869999 4.1399999 -1.048 -0.027546074 0.4782407 -0.73132414 0.87424707
-2.6070001 4.1440001 -1.051 -0.036243621 0.48442528 -0.71788841 0.86680174
-2.6240001 4.1420002 -1.053 -0.033442594 0.48710677 -0.71279168 0.86398113
-2.631 4.1240001 -1.05 -0.028135 0.49013463 -0.70710993 0.86082983
-2.645 4.1170001 -1.051 -0.020222796 0.48652196 -0.70287478 0.85507047
-2.6689999 4.1269999 -1.056 -0.013622131 0.4793649 -0.71889794 0.86417037
-2.6930001 4.1350002 -1.061 0.0051618982 0.47508478 -0.72835809 0.86961925
-2.7 4.132 -1.061 0.0026806723 0.47430554 -0.72982621 0.87041324
-2.724 4.1399999 -1.066 0.0075255265 0.47462818 -0.72924888 0.87013358
-2.74 4.1370001 -1.067 0.006469904 0.47471535 -0.72907996 0.87003112
-2.756 4.1329999 -1.069 0.0076390272 0.48241794 -0.71810943 0.8651396
-2.777 4.1350002 -1.072 0.0022036426 0.48734775 -0.72056359 0.86989915
-2.7869999 4.1230001 -1.071 0.0029251806 0.48667118 -0.72190189 0.87063181
-2.796 4.1079998 -1.069 0.0036230523 0.48838153 -0.71842313 0.86871254
-2.8139999 4.1220002 -1.074 0.0034582519 0.49521214 -0.70390463 0.86065596
-2.8210001 4.1030002 -1.071 -0.024750566 0.50735211 -0.67342609 0.84351736
-2.852 4.1209998 -1.079 -0.016844323 0.50075793 -0.68369919 0.84763598
-2.8710001 4.1199999 -1.082 -0.016798589 0.50958371 -0.66901743 0.84115517
-2.8800001 4.1069999 -1.08 -0.024186328 0.51369947 -0.65615642 0.83367461
-2.8970001 4.1020002 -1.082 -0.031502396 0.51502705 -0.65065747 0.83042181
-2.924 4.1139998 -1.0880001 -0.02828604 0.51677257 -0.64581102 0.82760245
-2.9360001 4.1170001 -1.09 -0.024909217 0.51231772 -0.66012496 0.83597541
-2.948 4.1059999 -1.09 -0.032372791 0.51636904 -0.65449852 0.83429807
-2.971 4.1110001 -1.094 -0.031625308 0.51347357 -0.6631695 0.83931464
-2.9849999 4.1040001 -1.094 -0.025553163 0.52471977 -0.66819865 0.84998429
-2.997 4.0929999 -1.094 -0.023460357 0.51552564 -0.67032504 0.84596258
-3.026 4.105 -1.1 -0.0084263999 0.52662945 -0.65742433 0.84238726
-3.04 4.0970001 -1.101 -0.0065179449 0.52628064 -0.66229111 0.84595704
-3.056 4.1069999 -1.105 -0.0071276203 0.52614731 -0.66259521 0.84611714
-3.079 4.1090002 -1.109 -0.00039408915 0.52489632 -0.66679764 0.84860796
-3.0940001 4.1030002 -1.11 -0.00082536973 0.52171242 -0.67532057 0.8533712
-3.109 4.0960002 -1.1109999 -0.0029674582 0.52169722 -0.67517418 0.85325086
-3.132 4.0999999 -1.115 0.0029904265 0.52397054 -0.66957676 0.85022765
-3.1489999 4.0949998 -1.1160001 0.0096848337 0.52562892 -0.66529477 0.84793675
-3.164 4.0879998 -1.117 0.01102344 0.52703959 -0.66132689 0.8457219
-3.181 4.0970001 -1.1210001 0.015600388 0.52673435 -0.66220832 0.84629327
-3.2019999 4.098 -1.125 0.023539731 0.52629137 -0.66318148 0.84696305
-3.214 4.086 -1.124 0.025488552 0.52603209 -0.66378695 0.8473326
-3.2479999 4.1040001 -1.132 0.041965283 0.52935374 -0.65197903 0.84086454
-3.26 4.092 -1.132 0.042722046 0.53097159 -0.64679742 0.83791578
-3.2750001 4.085 -1.133 0.045131359 0.53246307 -0.6414749 0.8348915
-3.306 4.0970001 -1.14 0.056156091 0.52556288 -0.66006869 0.84561253
-3.3080001 4.086 -1.138 0.055207048 0.52532136 -0.66100669 0.84613246
-3.3239999 4.0799999 -1.1390001 0.071045831 0.52485096 -0.65436614 0.8418498
-3.358 4.0949998 -1.147 0.070875548 0.52523965 -0.65326089 0.84121925
-3.381 4.0970001 -1.151 0.075640403 0.52399135 -0.65631115 0.84322757
-3.3840001 4.0739999 -1.147 0.073114164 0.52528685 -0.65334392 0.84150475
-3.4100001 4.0799999 -1.153 0.078061111 0.5234285 -0.65708172 0.84369862
-3.4189999 4.0650001 -1.151 0.075026713 0.52361387 -0.65763706 0.84397095
-3.4549999 4.0949998 -1.1619999 0.07604555 0.52210712 -0.66162187 0.8462401
-3.473 4.0900002 -1.164 0.08468847 0.51809502 -0.66215336 0.84500986
-3.4920001 4.0869999 -1.166 0.086876273 0.51659423 -0.66555083 0.84697992
-3.5120001 4.0830002 -1.169 0.096832559 0.51287609 -0.67170584 0.85065103
-3.529 4.0780001 -1.171 0.099456802 0.50155365 -0.67635804 0.84788436
-3.5450001 4.0700002 -1.1720001 0.10538406 0.50635445 -0.66082144 0.8391577
-3.569 4.072 -1.176 0.10320518 0.50376588 -0.66898406 0.8437838
-3.6010001 4.0960002 -1.1849999 0.083048984 0.51411235 -0.66867167 0.84754378
-3.6070001 4.0770001 -1.183 0.085850328 0.51443893 -0.66673166 0.84649205
-3.6199999 4.066 -1.183 0.088786989 0.5152263 -0.6633786 0.84463745
-3.6500001 4.073 -1.189 0.086596414 0.51954603 -0.65896428 0.84359998
-3.6730001 4.073 -1.193 0.08088237 0.52147806 -0.65503228 0.84115911
-3.6789999 4.0549998 -1.1900001 0.081224278 0.52149183 -0.6548757 0.84107864
-3.704 4.0560002 -1.194 0.081228353 0.5206995 -0.65721589 0.84241247
-3.7390001 4.0819998 -1.205 0.056951039 0.55192888 -0.65124303 0.85556203
-3.757 4.0760002 -1.207 0.060047194 0.55046374 -0.65476972 0.85751927
-3.7750001 4.0700002 -1.2079999 0.062035315 0.55224031 -0.64892203 0.85435212
-3.803 4.0749998 -1.214 0.057673804 0.54056871 -0.65632057 0.85223091
-3.8110001 4.0570002 -1.212 0.055849463 0.53855705 -0.66245794 0.85557783
-3.8340001 4.0570002 -1.216 0.055939414 0.53066975 -0.66478848 0.85245723
-3.8599999 4.059 -1.221 0.055866305 0.52947932 -0.66806984 0.85427552
-3.8770001 4.0510001 -1.222 0.049497481 0.52923989 -0.66974562 0.85504621
-3.8970001 4.059 -1.227 0.044525597 0.52935594 -0.67007059 0.85509926
-3.9159999 4.0539999 -1.229 0.044496655 0.5265249 -0.67749077 0.85918689
-3.948 4.0609999 -1.2359999 0.049543835 0.52571714 -0.67893034 0.86010432
-3.9579999 4.046 -1.235 0.045714561 0.52834904 -0.67261225 0.85653353
-3.994 4.0570002 -1.243 0.051194567 0.53091633 -0.65878975 0.847642
-4.0149999 4.053 -1.245 0.04896199 0.52855343 -0.66581696 0.85151529
-4.0289998 4.0409999 -1.2460001 0.050479427 0.52882731 -0.66483265 0.85100466
-4.0489998 4.0489998 -1.25 0.051574908 0.5319103 -0.66830975 0.85570228
-4.0780001 4.053 -1.256 0.064974546 0.5302971 -0.66964096 0.85665381
-4.1090002 4.0580001 -1.262 0.074216187 0.52843672 -0.67192817 0.8580448
-4.1160002 4.039 -1.26 0.076313689 0.5266934 -0.67580265 0.86019707
-4.1529999 4.0510001 -1.2690001 0.091063507 0.52599263 -0.67459893 0.8602584
-4.191 4.0619998 -1.277 0.11490394 0.51736969 -0.68564266 0.86659116
-4.1929998 4.0380001 -1.273 0.10580471 0.51967508 -0.68430531 0.86575431
-4.2270002 4.059 -1.283 0.11904842 0.51528674 -0.6885252 0.86819351
-4.2519999 4.0580001 -1.2869999 0.11924046 0.51394296 -0.69153905 0.86981714
-4.2800002 4.059 -1.2920001 0.13047358 0.50792348 -0.69828016 0.87327248
-4.303 4.0549998 -1.295 0.13034204 0.52551115 -0.69571108 0.88156956
-4.3499999 4.073 -1.306 0.13666736 0.52132803 -0.70128179 0.88445294
-4.3740001 4.0700002 -1.3099999 0.14346056 0.51643145 -0.70762426 0.88770181
-4.4039998 4.073 -1.316 0.15640056 0.51222748 -0.70815587 0.8878755
-4.4499998 4.1030002 -1.329 0.16552809 0.50309187 -0.71709919 0.89147753
-4.4699998 4.0949998 -1.331 0.16676816 0.5032407 -0.71602929 0.89093256
-4.54 4.1339998 -1.35 0.18493797 0.48456293 -0.71883512 0.88641256
-4.579 4.1430001 -1.358 0.18119435 0.48569879 -0.71920663 0.88656241
-4.6350002 4.1680002 -1.372 0.14110036 0.49277735 -0.72833914 0.89062715
-4.677 4.1789999 -1.381 0.092232563 0.49546635 -0.74116886 0.89628398
-0.43399999 4.5450001 -1.02 0.39732137 -0.18436322 -0.33741915 0.55290663
-0.442 4.4840002 -1.005 0.37898919 -0.22076076 -0.32507181 0.54593021
-0.45199999 4.4419999 -0.995 0.36271608 -0.24796657 -0.32194275 0.54469943
-0.46399999 4.4229999 -0.991 0.35372522 -0.26502758 -0.32257062 0.54718643
-0.48100001 4.3860002 -0.98199999 0.30501556 -0.32862315 -0.31202513 0.54624844
-0.48899999 4.342 -0.97100002 0.27810004 -0.35958111 -0.3138625 0.5524019
-0.53600001 4.2779999 -0.95700002 0.18159825 -0.42345506 -0.31268057 0.55683142
-0.551 4.2880001 -0.95899999 0.17687467 -0.42591104 -0.31212249 0.556871
-0.55800003 4.2870002 -0.95899999 -0.27865723 0.38608456 -0.67697275 0.82764924
-0.57300001 4.2950001 -0.96200001 -0.27237517 0.39096901 -0.67671388 0.82763922
-0.583 4.2680001 -0.95599997 -0.25930604 0.39969242 -0.6723882 0.82407498
-0.59600002 4.2639999 -0.95499998 -0.25743499 0.40108359 -0.67130148 0.82327789
-0.61000001 4.2639999 -0.95599997 -0.2432254 0.40574548 -0.67642134 0.82542944
-0.62400001 4.27 -0.958 -0.2321151 0.40972346 -0.67864096 0.82601708
-0.639 4.2779999 -0.95999998 -0.2223316 0.41341367 -0.67954063 0.82590413
-0.64399999 4.2670002 -0.958 -0.2121149 0.41911107 -0.67537141 0.82266235
-0.65600002 4.2550001 -0.95499998 -0.20277758 0.42285049 -0.67453122 0.8215313
-0.66900003 4.2490001 -0.954 -0.20279843 0.42266798 -0.67496693 0.82180035
-0.685 4.2659998 -0.95899999 -0.19413723 0.42425144 -0.67831206 0.82327747
-0.69800001 4.2579999 -0.958 -0.18833017 0.42783237 -0.67404997 0.82027566
-0.71100003 4.2519999 -0.95700002 -0.17737514 0.43040389 -0.6758616 0.82066947
-0.72500002 4.2540002 -0.958 -0.16722764 0.43412888 -0.67348325 0.81854302
-0.73000002 4.243 -0.95499998 -0.15990624 0.43780988 -0.67341053 0.81898057
-0.74299997 4.243 -0.95599997 -0.16063185 0.43760902 -0.67346764 0.81906223
-0.75700003 4.2420001 -0.95599997 -0.14996147 0.43846691 -0.67768323 0.82097274
-0.77100003 4.244 -0.95700002 -0.1447428 0.44634444 -0.67886186 0.82524377
-0.78600001 4.2509999 -0.95899999 -0.13526107 0.44848871 -0.67838299 0.82440352
-0.79900002 4.2449999 -0.95899999 -0.13409951 0.44836628 -0.67926222 0.824871
-0.81 4.2309999 -0.95599997 -0.12666319 0.45097139 -0.67611086 0.82252336
-0.82499999 4.2399998 -0.95899999 -0.12085071 0.45064712 -0.67945433 0.82422441
-0.83099997 4.2309999 -0.95700002 -0.11513075 0.45119438 -0.68033653 0.82443273
-0.84600002 4.2389998 -0.95899999 -0.10906601 0.45215324 -0.6801157 0.82395107
-0.85900003 4.237 -0.95899999 -0.10144877 0.45364013 -0.67882347 0.82272875
-0.87 4.2210002 -0.95599997 -0.097481892 0.45499718 -0.67650837 0.82108998
-0.88599998 4.2309999 -0.95899999 -0.094118096 0.45475221 -0.6780771 0.82185543
-0.90399998 4.2509999 -0.96499997 -0.093165189 0.45578846 -0.67564356 0.82031524
-0.90700001 4.2329998 -0.96100003 -0.091093346 0.45669231 -0.67643201 0.82123446
-0.92199999 4.2360001 -0.96200001 -0.086906672 0.4569231 -0.67685157 0.82125485
-0.93400002 4.2270002 -0.96100003 -0.087255634 0.45718983 -0.67607558 0.82080102
-0.94499999 4.2160001 -0.95899999 -0.083713092 0.45781225 -0.67524314 0.82009345
-0.95999998 4.2210002 -0.96100003 -0.085136592 0.45697674 -0.67711312 0.82131487
-0.97500002 4.2259998 -0.963 -0.083520114 0.45763475 -0.67575014 0.82039225
-0.98799998 4.2210002 -0.96200001 -0.081419177 0.45690477 -0.67740452 0.8211382
-0.99400002 4.2129998 -0.96100003 -0.079771727 0.45705381 -0.67734516 0.82101041
-1.008 4.2140002 -0.96200001 -0.085582569 0.45565221 -0.67973739 0.82279176
-1.023 4.2199998 -0.96399999 -0.085271761 0.45464981 -0.6804499 0.8227939
-1.033 4.204 -0.96100003 -0.085775778 0.45503536 -0.67935318 0.82215291
-1.054 4.2290001 -0.96799999 -0.087953582 0.45626798 -0.67564833 0.82001036
-1.0650001 4.2179999 -0.96600002 -0.089491807 0.45763719 -0.67162895 0.8176344
-1.079 4.2179999 -0.96700001 -0.088510096 0.46562606 -0.67574286 0.82539088
-1.089 4.204 -0.96399999 -0.084858634 0.4682585 -0.66581935 0.81840241
-1.101 4.2189999 -0.96899998 -0.088912576 0.46674988 -0.66891515 0.82049274
-1.11 4.2020001 -0.96499997 -0.078963295 0.47140345 -0.65822661 0.81346095
-1.131 4.2249999 -0.972 -0.077516921 0.46945095 -0.66419715 0.81703788
-1.143 4.2179999 -0.97100002 -0.076225013 0.468876 -0.66608834 0.81812507
-1.159 4.223 -0.97399998 -0.066696443 0.45389542 -0.70461261 0.84080225
-1.17 4.2119999 -0.972 -0.066070035 0.45719686 -0.69725448 0.83639586
-1.184 4.2119999 -0.97299999 -0.06720838 0.45835418 -0.69442481 0.83476424
-1.189 4.2030001 -0.97100002 -0.066376515 0.45894858 -0.69313449 0.83395147
-1.2029999 4.2049999 -0.972 -0.064795509 0.45810118 -0.69531316 0.8351739
-1.2180001 4.2049999 -0.97299999 -0.066785552 0.45802736 -0.69524217 0.83523118
-1.2309999 4.2010002 -0.97299999 -0.065242887 0.45526916 -0.70173132 0.83901936
-1.249 4.2140002 -0.977 -0.065183841 0.43845144 -0.73587698 0.85907131
-1.2589999 4.198 -0.97500002 -0.064646363 0.44864962 -0.71602792 0.84744418
-1.268 4.1799998 -0.97100002 -0.066221103 0.4530077 -0.7066142 0.84196484
-1.275 4.1810002 -0.972 -0.063272379 0.45174947 -0.70965439 0.84361744
-1.289 4.1789999 -0.972 -0.060058884 0.44541186 -0.72300899 0.85131711
-1.303 4.177 -0.97299999 -0.065933488 0.4457632 -0.72175211 0.85086906
-1.319 4.184 -0.97500002 -0.06267345 0.44606599 -0.72147572 0.8505469
-1.335 4.1869998 -0.977 -0.054458696 0.45823944 -0.69578654 0.83490598
-1.353 4.198 -0.98100001 -0.049174279 0.45343751 -0.69525379 0.83150554
-1.369 4.2010002 -0.98299998 -0.053710785 0.45301694 -0.69570231 0.83193201
-1.367 4.1729999 -0.97600001 -0.053416871 0.4492242 -0.70437086 0.83713442
-1.3839999 4.1810002 -0.98000002 -0.056730956 0.44900471 -0.70442474 0.83728004
-1.403 4.1939998 -0.98400003 -0.059808448 0.45316136 -0.69447714 0.8314029
-1.414 4.184 -0.98299998 -0.057285912 0.45176122 -0.69812101 0.83351231
-1.428 4.1830001 -0.98400003 -0.060837612 0.45259881 -0.69562674 0.83213186
-1.4450001 4.1880002 -0.986 -0.061998792 0.45552808 -0.68843931 0.82782751
-1.454 4.1719999 -0.98299998 -0.061662853 0.44889715 -0.70391953 0.83714616
-1.473 4.204 -0.99199998 -0.069303848 0.44594485 -0.70900589 0.84045178
-1.471 4.158 -0.98100001 -0.068590298 0.45459232 -0.70593524 0.84243894
-1.485 4.1570001 -0.98199999 -0.068463877 0.45066705 -0.71436298 0.84740931
-1.5089999 4.1789999 -0.99000001 -0.068300977 0.46095064 -0.70150399 0.84216887
-1.523 4.178 -0.991 -0.069569349 0.46415854 -0.69382763 0.83766329
-1.531 4.1589999 -0.98699999 -0.065102935 0.4546805 -0.7157017 0.85041261
-1.549 4.1669998 -0.99000001 -0.070665911 0.45726535 -0.70909727 0.84670198
-1.577 4.1440001 -0.98699999 -0.058649927 0.44818398 -0.72975433 0.85839975
-1.596 4.1529999 -0.991 -0.055284139 0.45029938 -0.72613257 0.85620934
-1.612 4.1550002 -0.99299997 -0.056914963 0.4512738 -0.72398037 0.8550058
-1.625 4.152 -0.99299997 -0.05937504 0.45067343 -0.72479701 0.85554814
-1.664 4.1539998 -0.99699998 -0.050929196 0.45392284 -0.70694393 0.84167063
-1.691 4.145 -0.99800003 -0.045429148 0.46574929 -0.6900515 0.83376092
-2.1229999 4.1230001 -1.038 -0.0020260839 0.44320306 -0.75886929 0.87881494
-2.1600001 4.132 -1.044 -0.014551662 0.45537299 -0.76208961 0.88789463
-2.165 4.125 -1.043 -0.01455182 0.4553737 -0.76208949 0.88789493
-2.1849999 4.132 -1.0470001 -0.013437862 0.46321875 -0.74896848 0.88074172
-2.2019999 4.132 -1.049 -0.018990748 0.46220818 -0.75072801 0.88181043
-2.2 4.098 -1.0420001 -0.018990748 0.46220818 -0.75072801 0.88181043
-2.2049999 4.0749998 -1.0369999 -0.010889876 0.47033817 -0.74042284 0.87724715
-2.4519999 4.0910001 -1.071 -0.022274131 0.486155 -0.71946895 0.86860716
-2.4549999 4.066 -1.066 -0.023746146 0.48832291 -0.71488464 0.86607343
-2.4679999 4.059 -1.066 -0.016358506 0.49336311 -0.70465034 0.86035275
-2.4860001 4.0749998 -1.072 -0.019588148 0.49729457 -0.69550037 0.855223
-2.5209999 4.0739999 -1.076 -0.033803489 0.49496031 -0.69923586 0.85735589
-3.5739999 4.0640001 -1.232 0.086742572 0.5161528 -0.63857508 0.825661
-3.803 4.046 -1.267 0.046021216 0.54400527 -0.62922895 0.83305985
-3.8529999 4.0609999 -1.278 0.04912927 0.54096979 -0.63425446 0.8350693
-3.858 4.04 -1.276 0.04912927 0.54096979 -0.63425446 0.8350693
-3.868 4.0250001 -1.275 0.04985933 0.54431301 -0.62196857 0.82801419
-3.9070001 4.0409999 -1.284 0.046456713 0.54608077 -0.61567163 0.82426572
-3.931 4.04 -1.288 0.049487628 0.54507148 -0.61910701 0.82634467
-3.9879999 4.0469999 -1.299 0.04339765 0.54102564 -0.62720895 0.82944751
-4.1350002 4.1820002 -1.349 0.08031705 0.54069954 -0.63287127 0.83626121
-4.3559999 4.375 -1.423 0.16414595 0.47629529 -0.73041183 0.88730067
-4.3870001 4.3800001 -1.429 0.15850633 0.47911942 -0.72854447 0.88625997
-4.3920002 4.3559999 -1.426 0.15928337 0.47819096 -0.72978902 0.88692153
-4.3930001 4.3299999 -1.421 0.1578106 0.48198137 -0.72366095 0.88368285
-4.3850002 4.296 -1.414 0.16879575 0.47713965 -0.72024101 0.88028485
-4.3839998 4.2810001 -1.411 0.16499889 0.48512018 -0.70693338 0.87311
-4.3730001 4.244 -1.403 0.14759448 0.50554973 -0.69433224 0.87147111
-4.3740001 4.2189999 -1.398 0.14744109 0.5051105 -0.69441521 0.87125653
-4.3720002 4.1900001 -1.393 0.14384693 0.50920928 -0.68737924 0.86745387
-4.3400002 4.1339998 -1.377 0.12654321 0.51732421 -0.67830712 0.8624025
-4.3099999 4.0799999 -1.363 0.12013932 0.52130383 -0.67180419 0.85878521
-4.283 4.0300002 -1.349 0.10677047 0.54347843 -0.66434371 0.86494005
-0.366 4.9530001 -1.1720001 0.4336096 -0.053803273 -0.40789723 0.59773928
-0.373 4.842 -1.143 0.4357084 -0.066844314 -0.41453847 0.60510504
-0.38299999 4.7670002 -1.124 0.43454689 -0.085576728 -0.41674137 0.60813463
-0.43200001 4.4029999 -1.03 0.35628426 -0.27041551 -0.33645076 0.55969822
-0.44600001 4.3959999 -1.029 0.35427278 -0.27691221 -0.34116343 0.56443071
-0.44800001 4.3449998 -1.016 0.30071837 -0.34872288 -0.33908126 0.57185251
-0.45899999 4.3189998 -1.0089999 0.2708526 -0.37690207 -0.33377081 0.57168108
-0.47400001 4.329 -1.012 0.27258876 -0.37528169 -0.33382732 0.57147324
-0.486 4.316 -1.0089999 0.26225203 -0.38538888 -0.33500612 0.57404691
-0.50199997 4.3390002 -1.016 0.26158112 -0.38535491 -0.33362204 0.57291079
-0.51300001 4.3130002 -1.0089999 0.22610873 -0.40333998 -0.33286595 0.56974387
-0.52399999 4.2919998 -1.0039999 0.21577209 -0.41208687 -0.33628452 0.57398647
-0.52700001 4.256 -0.995 -0.28437832 0.3900218 -0.65992975 0.81761563
-0.54100001 4.2589998 -0.99599999 -0.26930234 0.39685857 -0.66326839 0.81850195
-0.55500001 4.2649999 -0.99800003 -0.26330638 0.40267912 -0.65991843 0.81668419
-0.56900001 4.2670002 -0.99900001 -0.2626493 0.40272853 -0.66065621 0.81709331
-0.58099997 4.2550001 -0.99699998 -0.24447253 0.41226998 -0.65860206 0.81454897
-0.59399998 4.25 -0.99599999 -0.24447253 0.41226998 -0.65860206 0.81454897
-0.60699999 4.244 -0.995 -0.2365633 0.41527718 -0.65996277 0.81484246
-0.61900002 4.2340002 -0.99299997 -0.21499367 0.42386231 -0.66037661 0.81362081
-0.62699997 4.243 -0.995 -0.21426733 0.42445338 -0.65951061 0.81303471
-0.63700002 4.2199998 -0.99000001 -0.19864635 0.42952833 -0.66079867 0.81277907
-0.65700001 4.2579999 -1 -0.21236588 0.42666873 -0.65527242 0.81026381
-0.66900003 4.2480001 -0.99800003 -0.19636649 0.43084645 -0.65924865 0.81166327
-0.676 4.2080002 -0.98799998 -0.18960422 0.43504244 -0.6585812 0.81175178
-0.69199997 4.2210002 -0.99199998 -0.18188773 0.43489498 -0.66054118 0.81149948
-0.699 4.2259998 -0.99400002 -0.18188773 0.43489498 -0.66054118 0.81149948
-0.71200001 4.2179999 -0.99199998 -0.16979408 0.4401865 -0.66021919 0.81147003
-0.72600001 4.2210002 -0.99400002 -0.1684593 0.43968236 -0.66260552 0.81286234
-0.73699999 4.2069998 -0.991 -0.16500181 0.43955046 -0.66542345 0.81438237
-0.75199997 4.2160001 -0.99400002 -0.15597889 0.44904107 -0.66504771 0.81746912
-0.76700002 4.2220001 -0.99599999 -0.14162898 0.45206177 -0.66557485 0.81695074
-0.77899998 4.2140002 -0.99400002 -0.13547795 0.45221308 -0.66853023 0.81840312
-0.787 4.2199998 -0.99599999 -0.13065761 0.45212233 -0.67121583 0.81976628
-0.801 4.2189999 -0.99699998 -0.12758477 0.45339391 -0.66929317 0.81841141
-0.81400001 4.2150002 -0.99599999 -0.12472925 0.45438769 -0.66794127 0.81741732
-0.82800001 4.2160001 -0.99699998 -0.11962371 0.45495677 -0.66867745 0.81757265
-0.84100002 4.2119999 -0.99699998 -0.1071365 0.4566848 -0.66890764 0.81699246
-0.85299999 4.2030001 -0.995 -0.10093815 0.45647192 -0.6715728 0.81826961
-0.86900002 4.2140002 -0.99900001 -0.097944394 0.45654628 -0.67229474 0.81854004
-0.88099998 4.2049999 -0.99699998 -0.093289122 0.45856822 -0.66816473 0.81574005
-0.88800001 4.2080002 -0.99800003 -0.089342758 0.45870885 -0.66882956 0.81592214
-0.90200001 4.2090001 -0.99900001 -0.088016495 0.45970976 -0.66916442 0.81661552
-0.91799998 4.2189999 -1.003 -0.093735114 0.46032718 -0.66593045 0.8149544
-0.93000001 4.211 -1.001 -0.092040114 0.45929226 -0.66925716 0.81690019
-0.94300002 4.204 -1 -0.087671623 0.4586522 -0.67210943 0.81840044
-0.958 4.21 -1.003 -0.083410695 0.46122602 -0.66607136 0.81445557
-0.97000003 4.204 -1.002 -0.083742552 0.46228737 -0.66300362 0.81258613
-0.97799999 4.21 -1.0039999 -0.083742552 0.46228737 -0.66300362 0.81258613
-0.99199998 4.2080002 -1.0039999 -0.093006536 0.46194991 -0.66075754 0.8115716
-1.002 4.1900001 -1 -0.092277125 0.46209788 -0.66054356 0.81139839
-1.015 4.1890001 -1.001 -0.08637806 0.4619725 -0.66250372 0.81227517
-1.0319999 4.1989999 -1.0039999 -0.08709383 0.4602063 -0.66519332 0.81354612
-1.044 4.1900001 -1.003 -0.089177117 0.46081555 -0.66292304 0.81226259
-1.056 4.1849999 -1.002 -0.086599998 0.46948388 -0.66579688 0.81926805
-1.067 4.198 -1.006 -0.08743763 0.47277305 -0.65605968 0.81337202
-1.0779999 4.1890001 -1.005 -0.08637242 0.47608235 -0.64610946 0.80720013
-1.092 4.1880002 -1.005 -0.080302335 0.47781268 -0.64213866 0.80442244
-1.105 4.1820002 -1.005 -0.082104437 0.47406092 -0.64935148 0.80816597
-1.123 4.1989999 -1.01 -0.078583114 0.47516418 -0.64675719 0.80638152
-1.131 4.177 -1.005 -0.077140443 0.47592255 -0.64466053 0.80500937
-1.153 4.2049999 -1.0140001 -0.073874623 0.47963518 -0.63279581 0.79745716
-1.154 4.1830001 -1.008 -0.073690206 0.47373134 -0.65237033 0.80959165
-1.1670001 4.1789999 -1.008 -0.075092159 0.47270882 -0.65519267 0.81139994
-1.187 4.198 -1.0140001 -0.063777901 0.48460007 -0.61595136 0.7863211
-1.196 4.1789999 -1.01 -0.067325175 0.48156279 -0.62718564 0.79359764
-1.211 4.1849999 -1.013 -0.054889992 0.4825947 -0.62517273 0.7916764
-1.223 4.1750002 -1.011 -0.058083802 0.48275715 -0.62417883 0.79121894
-1.234 4.164 -1.0089999 -0.061141506 0.4827463 -0.62378609 0.79113299
-1.24 4.1620002 -1.0089999 -0.053920694 0.47963664 -0.63603741 0.79843748
-1.261 4.1820002 -1.016 -0.051901814 0.4798162 -0.63557404 0.79804242
-1.271 4.171 -1.0140001 -0.052966643 0.47989592 -0.63521153 0.79787171
-1.291 4.1869998 -1.0190001 -0.04684357 0.47687972 -0.64572716 0.80409712
-1.304 4.1849999 -1.02 -0.051148511 0.47693053 -0.64535022 0.80408692
-1.316 4.1760001 -1.018 -0.051959276 0.47630075 -0.64708054 0.80515552
-1.327 4.164 -1.016 -0.059013307 0.47953522 -0.63523132 0.79809487
-1.34 4.1820002 -1.022 -0.042839501 0.47265485 -0.64285481 0.79906207
-1.35 4.1690001 -1.0190001 -0.046406627 0.4721882 -0.64399827 0.7999056
-1.367 4.177 -1.023 -0.047554594 0.47216839 -0.64391547 0.79989475
-1.383 4.1820002 -1.025 -0.049836628 0.46713066 -0.65932769 0.80957258
-1.391 4.1630001 -1.021 -0.048709348 0.47040448 -0.64946693 0.80340546
-1.4069999 4.1659999 -1.023 -0.057812817 0.46949315 -0.65083325 0.80458069
-1.423 4.171 -1.026 -0.061632387 0.46375903 -0.66704434 0.81475097
-1.4299999 4.1690001 -1.026 -0.061632387 0.46375903 -0.66704434 0.81475097
-1.4400001 4.1550002 -1.023 -0.057731546 0.46721727 -0.65780711 0.80890983
-1.4579999 4.165 -1.027 -0.06363751 0.46692654 -0.65746701 0.80890852
-1.4680001 4.151 -1.025 -0.066276863 0.47407085 -0.65692747 0.81282806
-1.485 4.1589999 -1.028 -0.076093316 0.4763557 -0.66014004 0.81761229
-1.4960001 4.1479998 -1.026 -0.073957935 0.47609359 -0.66157615 0.81842405
-1.5140001 4.1589999 -1.031 -0.07240732 0.4740147 -0.66793501 0.82223469
-1.524 4.1430001 -1.028 -0.069035962 0.47252539 -0.67292303 0.82514942
-1.546 4.1849999 -1.04 -0.078855142 0.47220504 -0.67095733 0.8242448
-1.545 4.1420002 -1.029 -0.069639459 0.46945751 -0.68081117 0.82990593
-1.561 4.1440001 -1.031 -0.079991192 0.46792293 -0.6818347 0.83081228
-1.575 4.1430001 -1.0319999 -0.075807199 0.46914783 -0.67995 0.82956523
-1.586 4.132 -1.031 -0.068470106 0.4722653 -0.67376572 0.82564092
-1.605 4.1420002 -1.035 -0.066417068 0.47240898 -0.67389059 0.82565731
-1.622 4.1479998 -1.038 -0.068331406 0.47193927 -0.67467046 0.82618159
-1.63 4.151 -1.039 -0.069217287 0.47124246 -0.67628932 0.82718056
-1.638 4.1329999 -1.036 -0.064202502 0.47710869 -0.66132981 0.81799251
-1.658 4.1459999 -1.041 -0.061042901 0.46905413 -0.66780365 0.81835186
-1.669 4.1350002 -1.039 -0.058812566 0.47249207 -0.6584537 0.81256938
-1.682 4.1300001 -1.039 -0.047446705 0.47242716 -0.67265654 0.82335013
-1.7 4.1350002 -1.043 -0.043137487 0.47264063 -0.67274761 0.82331002
-1.7079999 4.119 -1.039 -0.04559537 0.47292 -0.67161959 0.82268167
-1.722 4.1339998 -1.045 -0.036775835 0.46337628 -0.66999286 0.81545109
-1.7359999 4.131 -1.045 -0.039287429 0.46218196 -0.6728344 0.81722814
-1.747 4.1220002 -1.044 -0.038927846 0.46240473 -0.67229277 0.81689107
-1.765 4.1269999 -1.0470001 -0.028933503 0.4595606 -0.67179596 0.81445867
-1.784 4.1350002 -1.051 -0.028728873 0.46115011 -0.66742706 0.81175345
-1.796 4.1279998 -1.051 -0.030126184 0.4605771 -0.6688177 0.8126229
-1.812 4.1290002 -1.053 -0.032911204 0.46616369 -0.66929489 0.81630105
-1.818 4.125 -1.052 -0.03345396 0.46626058 -0.66892862 0.81607819
-1.8329999 4.1240001 -1.054 -0.030576637 0.46571594 -0.67092651 0.81729352
-1.848 4.1240001 -1.0549999 -0.029704189 0.46891621 -0.66202283 0.81181216
-1.865 4.1269999 -1.058 -0.031483412 0.46990544 -0.65880036 0.80982727
-1.876 4.1160002 -1.056 -0.031483412 0.46990544 -0.65880036 0.80982727
-1.8890001 4.112 -1.057 -0.030671654 0.47221154 -0.65190667 0.80554748
-1.906 4.1149998 -1.059 -0.019016661 0.46189979 -0.65560693 0.80220538
-1.914 4.1129999 -1.0599999 -0.015498486 0.46361542 -0.65082288 0.7992183
-1.932 4.1199999 -1.063 -0.015589307 0.46359453 -0.65087581 0.79925102
-1.949 4.1220002 -1.066 -0.019478086 0.46388704 -0.649342 0.79825789
-1.959 4.1090002 -1.064 -0.02559429 0.46350202 -0.64940417 0.79825747
-1.974 4.1079998 -1.0650001 -0.022580888 0.46302387 -0.65151477 0.79960775
-1.9960001 4.119 -1.0700001 -0.024909977 0.47018293 -0.64533472 0.79884255
-2.0039999 4.1040001 -1.068 -0.024147319 0.47007471 -0.64581978 0.79914737
-2.023 4.1100001 -1.071 -0.030363429 0.4770917 -0.64504266 0.80288136
-2.033 4.1139998 -1.073 -0.019070135 0.47084981 -0.66552556 0.8154676
-2.043 4.1020002 -1.072 -0.021250617 0.48348197 -0.66608787 0.82333434
-2.0580001 4.099 -1.073 -0.025254373 0.48433986 -0.66323912 0.82165021
-2.082 4.1149998 -1.079 -0.0031253449 0.46957484 -0.70167804 0.84431177
-2.095 4.1090002 -1.079 0.008045041 0.45481259 -0.71965039 0.85136122
-2.1110001 4.1090002 -1.081 0.0073186317 0.44983727 -0.72906649 0.85670596
-2.1210001 4.0960002 -1.079 -0.0049421517 0.46567559 -0.71756911 0.85544354
-2.131 4.1009998 -1.082 -0.00029552449 0.46177089 -0.72536671 0.85987747
-2.148 4.1009998 -1.084 -0.0037769568 0.46138144 -0.72621155 0.86038965
-2.1600001 4.0929999 -1.0829999 -0.0031149485 0.45860574 -0.73158276 0.8634479
-2.1819999 4.1030002 -1.0880001 -0.0094775986 0.47131392 -0.734312 0.87260574
-2.1989999 4.105 -1.091 -0.0070171105 0.47572687 -0.7257604 0.86780959
-2.2160001 4.105 -1.0930001 -0.015181976 0.46670622 -0.7428543 0.87742674
-2.2249999 4.0910001 -1.091 -0.01053039 0.47476068 -0.73222941 0.87273622
-2.2279999 4.0799999 -1.089 -0.01053039 0.47476068 -0.73222941 0.87273622
-2.2490001 4.0890002 -1.0930001 -0.0035397476 0.47892046 -0.73116845 0.87406212
-2.263 4.085 -1.094 0.0051385886 0.47459656 -0.72230226 0.86428517
-2.2880001 4.0999999 -1.101 -0.0063695274 0.47427094 -0.7232132 0.86487621
-2.2969999 4.0840001 -1.098 -0.0065177567 0.478035 -0.71553749 0.8605544
-2.313 4.0840001 -1.1 -0.005991457 0.47809932 -0.71540481 0.86047596
-2.3269999 4.0780001 -1.101 -0.0071591567 0.47659948 -0.71850044 0.86223036
-2.3380001 4.0830002 -1.103 -0.0075388439 0.48778901 -0.71748376 0.86762774
-2.3540001 4.0809999 -1.105 -0.0049281158 0.49146503 -0.70979476 0.86334854
-2.3659999 4.072 -1.105 -0.0073996391 0.48981184 -0.7132839 0.86530012
-2.395 4.0929999 -1.113 -0.017089073 0.48931065 -0.71397901 0.86572683
-2.3970001 4.0669999 -1.108 -0.015181678 0.49602586 -0.6994316 0.85759938
-2.4170001 4.0710001 -1.1109999 -0.018524367 0.49544799 -0.69983298 0.85765845
-2.437 4.0760002 -1.115 -0.027164174 0.49616855 -0.69735795 0.85628808
-2.448 4.079 -1.117 -0.02653609 0.49547189 -0.69902819 0.85722631
-2.4630001 4.0770001 -1.119 -0.024027266 0.49885207 -0.69141203 0.85292512
-2.484 4.0819998 -1.123 -0.024674689 0.49892676 -0.69116414 0.85278636
-2.4990001 4.0780001 -1.124 -0.02652451 0.49714127 -0.69517636 0.85505742
-2.517 4.0780001 -1.126 -0.039831739 0.49861264 -0.68966407 0.85196108
-2.543 4.092 -1.133 -0.038467966 0.497549 -0.69245702 0.8535406
-2.5439999 4.0650001 -1.127 -0.028322186 0.50757617 -0.66850907 0.8398453
-2.562 4.079 -1.133 -0.02859403 0.50773025 -0.66804302 0.83957672
-2.569 4.0619998 -1.13 -0.028687432 0.50806659 -0.66709429 0.83902884
-2.5869999 4.0619998 -1.132 -0.028022952 0.50830674 -0.66188967 0.8350203
-2.6059999 4.0630002 -1.135 -0.030362079 0.51239437 -0.64909285 0.8275212
-2.628 4.0700002 -1.14 -0.026043788 0.51488984 -0.64183974 0.82325459
-2.6359999 4.0549998 -1.138 -0.028015139 0.51479882 -0.64175928 0.82319963
-2.6559999 4.0580001 -1.141 -0.015920443 0.51136047 -0.63511151 0.81554252
-2.668 4.0619998 -1.1440001 -0.018401919 0.51082844 -0.63653767 0.81637275
-2.691 4.0700002 -1.149 -0.021678904 0.51270604 -0.62912369 0.81187075
-2.707 4.066 -1.15 -0.01804433 0.51375794 -0.62593985 0.80998367
-2.7160001 4.0510001 -1.148 -0.014673414 0.51400417 -0.6256274 0.80983037
-2.7309999 4.046 -1.149 -0.013999792 0.51651722 -0.61574149 0.80381811
-2.7579999 4.0599999 -1.156 -0.0093298461 0.51499718 -0.63135087 0.81480861
-2.777 4.059 -1.159 -0.011247646 0.51917094 -0.62800997 0.81489968
-2.7980001 4.0630002 -1.163 -0.0090786181 0.52943492 -0.61446649 0.81114292
-2.809 4.0650001 -1.165 -0.0079481546 0.52659261 -0.61389005 0.80884111
-2.822 4.0560002 -1.165 -0.0033906766 0.52524012 -0.61964267 0.81230885
-2.8380001 4.052 -1.1670001 -0.011182781 0.53018451 -0.59725273 0.79870611
-2.859 4.0560002 -1.171 -0.010002845 0.52843177 -0.60456967 0.80302221
-2.8710001 4.0450001 -1.17 -0.013807452 0.53231919 -0.58412921 0.79041845
-2.8900001 4.046 -1.173 -0.011895353 0.53589165 -0.57932013 0.78926116
-2.915 4.0539999 -1.179 -0.019349869 0.53608096 -0.57642984 0.7874189
-2.918 4.0450001 -1.177 -0.019349869 0.53608096 -0.57642984 0.7874189
-2.948 4.059 -1.1849999 -0.019964254 0.53748089 -0.56682807 0.78139514
-2.964 4.0549998 -1.186 -0.018788204 0.5502829 -0.56816733 0.79118794
-2.994 4.0689998 -1.194 -0.010101236 0.54315901 -0.55978274 0.78005159
-3 4.0500002 -1.191 -0.011813385 0.54315239 -0.55928797 0.77971601
