# .PCD v0.7 - Point Cloud Data file format
VERSION 0.7
FIELDS x y z normal_x normal_y normal_z curvature
SIZE 4 4 4 4 4 4 4
TYPE F F F F F F F
COUNT 1 1 1 1 1 1 1
WIDTH 268
HEIGHT 1
VIEWPOINT 0 0 0 1 0 0 0
POINTS 268
DATA ascii
11.544 -12.154 0.77600002 0.71336746 0.12091996 -0.45683712 0.85569561
11.505 -12.075 0.773 0.7118479 0.12584637 -0.45978832 0.85672051
11.471 -11.964 0.76999998 0.71120632 0.12785935 -0.4609803 0.85712618
11.457 -11.875 0.76700002 0.66548854 0.062086396 -0.47990692 0.82282466
11.418 -11.76 0.76300001 0.64512146 0.16317621 -0.48369035 0.82265699
11.401 -11.67 0.76099998 0.64484358 0.16399869 -0.48523614 0.82351255
11.375 -11.57 0.75800002 0.64422947 0.16589451 -0.48731464 0.82463825
11.328 -11.487 0.755 0.63698876 0.15863444 -0.49268278 0.82076544
11.304 -11.39 0.75199997 0.63615984 0.16059883 -0.49832961 0.82390761
11.278 -11.294 0.74900001 0.64037621 0.1536258 -0.49838483 0.82587528
11.254 -11.2 0.74599999 0.60408604 0.19171309 -0.50710207 0.81168121
11.234 -11.109 0.74299997 0.60460448 0.18834515 -0.50122112 0.8076157
11.209 -11.015 0.741 0.58334202 0.2138204 -0.51677346 0.80812246
11.172 -10.91 0.73699999 0.56338966 0.21377154 -0.52834684 0.80140913
11.157 -10.828 0.73500001 0.53796351 0.2230199 -0.53495622 0.79077226
11.499 -12.08 0.667 0.71152604 0.12433329 -0.47458249 0.86426651
11.483 -11.988 0.66500002 0.71078104 0.12702827 -0.47385851 0.86364794
11.431 -11.896 0.662 0.66385078 0.065392293 -0.49184909 0.82878798
11.41 -11.8 0.66000003 0.64404446 0.16405496 -0.50213259 0.83297324
11.378 -11.692 0.65700001 0.64388245 0.16553336 -0.49763265 0.83043617
11.363 -11.603 0.65499997 0.64447397 0.16384722 -0.49567497 0.8293891
11.328 -11.495 0.65200001 0.6348958 0.16334751 -0.50587189 0.82805884
11.312 -11.407 0.64999998 0.64127159 0.14814866 -0.50860929 0.83178169
11.262 -11.321 0.64700001 0.6400885 0.1510672 -0.5133462 0.83430141
11.237 -11.224 0.64499998 0.6020655 0.19599494 -0.51922947 0.81883824
11.21 -11.127 0.64300001 0.6030634 0.18412656 -0.5117085 0.81205523
11.192 -11.04 0.64099997 0.58368969 0.211092 -0.52338487 0.81190223
11.158 -10.937 0.63800001 0.53671652 0.20582804 -0.54390258 0.7913658
11.145 -10.856 0.63599998 0.53342003 0.20496297 -0.54131263 0.78712523
11.541 -12.125 0.58999997 0.71210146 0.11855307 -0.48783088 0.87127626
11.51 -12.017 0.58700001 0.70942408 0.12773657 -0.48805326 0.87051433
11.472 -11.94 0.58499998 0.66218698 0.067240529 -0.50518578 0.83559895
11.444 -11.836 0.583 0.65268236 0.078881294 -0.51285172 0.83380657
11.419 -11.737 0.58099997 0.64334834 0.1614598 -0.51961476 0.84259468
11.39 -11.634 0.579 0.64437509 0.16053084 -0.51128632 0.83809495
11.376 -11.547 0.57700002 0.63610214 0.1579988 -0.5112136 0.83122134
11.341 -11.439 0.57499999 0.63977456 0.15559079 -0.49902749 0.8261649
11.317 -11.344 0.57300001 0.64203578 0.14651787 -0.50394636 0.8292402
11.28 -11.271 0.57099998 0.62101096 0.125259 -0.50775301 0.81188518
11.244 -11.165 0.56900001 0.60306752 0.18405378 -0.5119704 0.8122068
11.222 -11.074 0.56699997 0.60133922 0.19762155 -0.51179761 0.81400239
11.205 -10.988 0.56599998 0.54430288 0.1976974 -0.52217096 0.77975148
11.304 -11.016 0.56800002 0.56667179 0.17892177 -0.52497154 0.79292184
11.513 -12.127 0.46200001 0.71239024 0.12383077 -0.46101764 0.85753787
11.481 -12.017 0.461 0.66321898 0.070444204 -0.47515103 0.81889576
11.456 -11.916 0.45899999 0.65434343 0.080292061 -0.48344144 0.81751317
11.437 -11.821 0.458 0.64371055 0.16698548 -0.49247742 0.82751524
11.389 -11.734 0.456 0.64497441 0.16242963 -0.49371836 0.82833159
11.358 -11.629 0.45500001 0.64613754 0.15842858 -0.49277991 0.82790416
11.339 -11.536 0.454 0.64829987 0.1587739 -0.49096599 0.82858282
11.302 -11.427 0.45199999 0.64029348 0.1552989 -0.48895144 0.82046753
11.282 -11.334 0.45100001 0.64100039 0.15239449 -0.49245021 0.82256478
11.265 -11.246 0.44999999 0.60439891 0.19199279 -0.49839589 0.8065716
11.228 -11.139 0.44800001 0.59868091 0.2008529 -0.50019115 0.80557549
11.189 -11.065 0.447 0.55515176 0.2033145 -0.51324391 0.782911
11.169 -10.977 0.44600001 0.54706562 0.19950935 -0.5194754 0.78034574
11.064 -10.804 0.44299999 0.54334325 0.22697431 -0.54234272 0.80054659
11.483 -12.07 0.37599999 0.71283644 0.1226954 -0.45764485 0.85593736
11.452 -12 0.375 0.65356678 0.083364919 -0.47955751 0.81490779
11.41 -11.881 0.37400001 0.65382421 0.082143217 -0.48267865 0.81683064
11.406 -11.802 0.373 0.64434928 0.16552007 -0.48699158 0.82446569
11.365 -11.686 0.37200001 0.64570779 0.16046998 -0.48941308 0.82596266
11.348 -11.596 0.37099999 0.64825791 0.1591769 -0.48920327 0.82758409
11.321 -11.497 0.37 0.64225185 0.14797105 -0.49198258 0.8224535
11.29 -11.393 0.36899999 0.64169329 0.15099366 -0.48223087 0.81677169
11.241 -11.309 0.368 0.62203836 0.12364372 -0.49455452 0.80424106
11.227 -11.224 0.368 0.60571086 0.18821946 -0.50025403 0.80781579
11.193 -11.12 0.36700001 0.57086891 0.19322988 -0.50879866 0.78873646
11.188 -11.045 0.366 0.54736996 0.1953184 -0.51739681 0.7781148
11.142 -10.932 0.36500001 0.5327723 0.20974827 -0.52995867 0.78019029
11.113 -10.835 0.36399999 0.51903397 0.23200564 -0.53684342 0.78193587
11.453 -12.078 0.259 0.70473462 0.13427711 -0.46269965 0.85368156
11.436 -11.984 0.259 0.65390718 0.082453907 -0.47727913 0.81374973
11.395 -11.866 0.259 0.65288907 0.085678577 -0.47872853 0.81411666
11.36 -11.792 0.25799999 0.64375138 0.16793726 -0.48299199 0.8221314
11.326 -11.683 0.25799999 0.64609826 0.16723002 -0.48361567 0.82419235
11.307 -11.59 0.25799999 0.64952767 0.15554477 -0.48039806 0.82271665
11.283 -11.493 0.25799999 0.65045398 0.15176798 -0.48418388 0.82495934
11.251 -11.389 0.257 0.64096177 0.15337968 -0.48486587 0.81820059
11.229 -11.295 0.257 0.62129045 0.12694481 -0.48713848 0.79963785
11.206 -11.2 0.257 0.5677222 0.18887469 -0.51722419 0.79088748
11.157 -11.116 0.25600001 0.56315285 0.2022938 -0.52142042 0.79368961
11.131 -11.02 0.25600001 0.5453431 0.21038473 -0.52489883 0.78560776
11.275 -11.094 0.257 0.56687379 0.18108284 -0.50915658 0.78318411
11.098 -10.851 0.25600001 0.50406224 0.27155334 -0.54562497 0.79090238
11.556 -12.156 0.18000001 0.71466482 0.1167929 -0.43434149 0.84441632
11.532 -12.055 0.18099999 0.65614843 0.075294152 -0.46049011 0.80514044
11.479 -11.962 0.18099999 0.65416425 0.082072392 -0.458994 0.80333197
11.444 -11.851 0.18099999 0.65500766 0.079165176 -0.45785895 0.80307966
11.42 -11.752 0.18099999 0.64562875 0.16046181 -0.45142379 0.8039701
11.396 -11.655 0.18099999 0.64990395 0.15344144 -0.45370087 0.80731899
11.372 -11.558 0.18099999 0.64851874 0.15845072 -0.45345396 0.8070339
11.354 -11.467 0.18099999 0.64236981 0.14761606 -0.45521203 0.80102903
11.335 -11.376 0.182 0.62214023 0.12402619 -0.48375389 0.79778367
11.305 -11.275 0.182 0.59632349 0.10934312 -0.50230277 0.78731549
11.256 -11.191 0.182 0.56615734 0.19557494 -0.50534165 0.78367966
11.237 -11.102 0.182 0.56015813 0.20029595 -0.51556969 0.78721517
11.21 -11.007 0.182 0.53269231 0.21523234 -0.5373497 0.78665793
11.186 -10.914 0.182 0.51440191 0.21731201 -0.5146988 0.75943971
11.473 -12.032 0.075000003 0.65571898 0.076729938 -0.45844939 0.80376035
11.445 -11.927 0.075999998 0.65772939 0.069095552 -0.45252603 0.80135012
11.418 -11.825 0.075999998 0.64618438 0.15970051 -0.46304339 0.81084383
11.374 -11.742 0.077 0.64918047 0.1568509 -0.46136045 0.81172097
11.346 -11.639 0.078000002 0.64942199 0.1558598 -0.45983419 0.81085676
11.319 -11.539 0.079000004 0.64655781 0.16605704 -0.46245936 0.81208408
11.295 -11.442 0.079000004 0.6380654 0.1635879 -0.47281539 0.81082851
11.269 -11.344 0.079999998 0.59605598 0.11040058 -0.50086826 0.78634602
11.245 -11.249 0.081 0.57043111 0.18089452 -0.51355684 0.78857791
11.218 -11.151 0.081 0.56112492 0.19435419 -0.51498657 0.78603172
11.178 -11.076 0.082000002 0.54865319 0.20482478 -0.51530105 0.78006965
11.149 -10.977 0.082999997 0.52382845 0.25402826 -0.55471712 0.80413783
11.037 -10.799 0.083999999 0.48998529 0.29009044 -0.56450236 0.80181104
11.47 -12.026 -0.027000001 0.65610629 0.075496465 -0.46518615 0.80782014
11.449 -11.93 -0.026000001 0.65881628 0.065434381 -0.45907182 0.80564725
11.416 -11.82 -0.025 0.64635336 0.15866832 -0.45790657 0.80785316
11.388 -11.718 -0.023 0.6466862 0.16497871 -0.45479029 0.80762321
11.355 -11.648 -0.022 0.64657426 0.16569842 -0.458235 0.80962557
11.322 -11.541 -0.021 0.64565212 0.16888097 -0.4596113 0.81032705
11.293 -11.44 -0.02 0.61364979 0.15178001 -0.48321721 0.79567713
11.282 -11.357 -0.018999999 0.59014297 0.12880948 -0.49982014 0.78401577
11.241 -11.246 -0.017000001 0.5683887 0.1677196 -0.51923209 0.78790706
11.353 -11.286 -0.018999999 0.58874005 0.13058671 -0.51589268 0.79360759
10.872 -10.741 -0.0089999996 0.36530238 0.34149158 -0.73234773 0.88678944
10.546 -10.388 -0.0020000001 0.48528725 0.14166911 -0.62267959 0.80206221
11.101 -10.864 -0.012 0.48850191 0.27374893 -0.61510682 0.83182269
11.501 -12.1 -0.145 0.64584744 0.072243884 -0.48099944 0.80851626
11.469 -11.99 -0.14300001 0.65975487 0.061409865 -0.47531521 0.81545824
11.443 -11.888 -0.141 0.65865225 0.065692574 -0.47541764 0.8149603
11.415 -11.784 -0.139 0.65176409 0.14739162 -0.47515959 0.81993741
11.398 -11.692 -0.13699999 0.64797091 0.16128612 -0.47739753 0.8208459
11.37 -11.591 -0.13500001 0.64440453 0.17241503 -0.48705989 0.82596093
11.314 -11.497 -0.133 0.6359427 0.19599147 -0.49698114 0.83055764
11.489 -11.602 -0.13699999 0.61455977 0.13058899 -0.49460366 0.79960614
11.135 -11.173 -0.126 0.5623675 0.19329174 -0.56225872 0.81838483
10.596 -10.564 -0.109 0.44618294 0.21874985 -0.67172462 0.83555055
10.591 -10.493 -0.108 0.45674941 0.20289394 -0.66095793 0.82864428
10.576 -10.412 -0.106 0.48043799 0.14062639 -0.61395693 0.79217398
11.479 -12.075 -0.23 0.64586914 0.072905391 -0.46877047 0.80137879
11.445 -11.964 -0.227 0.66072297 0.05797201 -0.46144265 0.80798817
11.428 -11.872 -0.22499999 0.65999305 0.060906921 -0.46772754 0.81121486
11.4 -11.769 -0.223 0.64965147 0.15545425 -0.47161493 0.81770027
11.369 -11.663 -0.22 0.64545375 0.16983129 -0.47627237 0.81993204
11.334 -11.591 -0.21799999 0.6432451 0.17692159 -0.47439551 0.8186065
11.244 -11.427 -0.213 0.62687206 0.21935888 -0.49315464 0.82721728
11.237 -11.349 -0.212 0.57010305 0.17432895 -0.52800214 0.79636317
10.567 -10.541 -0.184 0.49579012 0.15105549 -0.59477949 0.78891587
10.554 -10.463 -0.183 0.48502719 0.16025713 -0.59971714 0.78777814
10.527 -10.371 -0.18099999 0.48378187 0.14357512 -0.60477293 0.78766048
11.44 -11.996 -0.32600001 0.65785164 0.068841398 -0.47380376 0.81363255
11.425 -11.905 -0.324 0.65981352 0.060163137 -0.48351449 0.82021934
11.383 -11.787 -0.31999999 0.64898896 0.15717359 -0.4841001 0.82476854
11.37 -11.699 -0.31799999 0.64466995 0.17156155 -0.48706415 0.82599288
11.33 -11.585 -0.31400001 0.64149702 0.18147221 -0.48664984 0.82539606
11.452 -11.636 -0.31799999 0.64327687 0.17552796 -0.49081689 0.82795918
10.66 -10.795 -0.28099999 0.42702365 0.28858489 -0.66342211 0.84009486
10.54 -10.606 -0.27399999 0.48581237 0.15227689 -0.60167533 0.78817201
10.509 -10.508 -0.271 0.48328084 0.16254713 -0.60417217 0.79057318
10.496 -10.43 -0.26899999 0.48644131 0.15438679 -0.60195249 0.78918141
10.475 -10.343 -0.26699999 0.4843092 0.14378111 -0.60211027 0.7859804
10.434 -10.237 -0.26300001 0.49229902 0.13135338 -0.6063875 0.79203397
11.446 -11.994 -0.435 0.6493935 0.059488371 -0.48206955 0.81095117
11.434 -11.906 -0.43200001 0.65694314 0.071597382 -0.47996759 0.81674314
11.402 -11.799 -0.42899999 0.64817452 0.077312872 -0.50237292 0.82370263
11.391 -11.714 -0.426 0.64270818 0.17363662 -0.5095852 0.83839166
11.348 -11.597 -0.42199999 0.62550181 0.21470664 -0.5303002 0.84768492
11.251 -11.426 -0.414 0.53646767 0.20419745 -0.54608434 0.79227668
10.569 -10.701 -0.37599999 0.48017594 0.20757286 -0.58730894 0.78650314
10.557 -10.623 -0.373 0.47897282 0.17880018 -0.58905154 0.77997833
10.52 -10.519 -0.37 0.48587283 0.183663 -0.58654302 0.78347766
10.501 -10.435 -0.36700001 0.48936182 0.15130609 -0.60214949 0.79053938
10.464 -10.269 -0.361 0.48895937 0.14525546 -0.60228473 0.78925747
11.478 -12.05 -0.537 0.64730763 0.06774649 -0.4743523 0.80536133
11.453 -11.947 -0.53200001 0.65603179 0.074569568 -0.48239198 0.81770432
11.405 -11.86 -0.528 0.64492363 0.091105953 -0.49291638 0.81681901
11.387 -11.766 -0.52499998 0.64145833 0.10193446 -0.49625194 0.81738937
11.354 -11.659 -0.51999998 0.63242435 0.20085493 -0.51833105 0.84200376
11.463 -11.698 -0.52499998 0.64482522 0.169728 -0.49632335 0.8312304
10.574 -10.72 -0.46599999 0.44690791 0.25825179 -0.54190147 0.74838346
10.549 -10.627 -0.46200001 0.45610952 0.24140735 -0.54697162 0.75199163
10.491 -10.535 -0.458 0.47499371 0.18290186 -0.59377241 0.78207278
10.466 -10.444 -0.454 0.47103494 0.17950578 -0.59350306 0.77867973
10.452 -10.365 -0.45100001 0.48687044 0.14863598 -0.60738313 0.79249591
10.447 -10.295 -0.449 0.48726094 0.1480093 -0.60584128 0.79143769
11.429 -11.929 -0.62599999 0.6361711 0.08032088 -0.46702513 0.79327017
11.387 -11.847 -0.62199998 0.64719176 0.085137501 -0.47211513 0.80560428
11.367 -11.753 -0.61799997 0.64073068 0.10637704 -0.47704968 0.80587113
11.338 -11.65 -0.61299998 0.63015056 0.21160448 -0.49209285 0.82705593
10.737 -10.964 -0.56699997 0.56804639 0.11610611 -0.38510185 0.69603217
10.529 -10.686 -0.55000001 0.46584168 0.2596285 -0.53208089 0.75334287
10.511 -10.601 -0.546 0.45261973 0.24376123 -0.55422288 0.75594127
10.461 -10.484 -0.54000002 0.47007659 0.18355687 -0.59017956 0.77651596
10.415 -10.406 -0.53600001 0.47659868 0.18192098 -0.59052509 0.7803598
10.392 -10.318 -0.53200001 0.4779256 0.15044668 -0.60304129 0.78403181
10.533 -10.392 -0.54000002 0.45765802 0.22248094 -0.57407022 0.76714092
11.442 -11.976 -0.73400003 0.64666605 0.070197031 -0.46817085 0.80142909
11.408 -11.865 -0.72799999 0.63425118 0.086856842 -0.4734273 0.79621106
11.384 -11.765 -0.72299999 0.6392023 0.11117041 -0.47053337 0.80146122
11.294 -11.636 -0.71399999 0.634278 0.20240767 -0.47146875 0.81581873
11.157 -11.421 -0.69999999 0.59097195 0.12539741 -0.45255992 0.7548396
10.523 -10.703 -0.64600003 0.46013716 0.26924014 -0.52974683 0.75156385
10.492 -10.604 -0.64099997 0.44114852 0.26583797 -0.53980386 0.74610323
10.456 -10.502 -0.63499999 0.4413777 0.2665844 -0.53730899 0.74470294
10.434 -10.414 -0.63099998 0.47189179 0.19216569 -0.59243339 0.78140056
10.408 -10.322 -0.62599999 0.47601029 0.15617831 -0.60271877 0.78373939
10.727 -10.607 -0.64999998 0.4825021 0.3062894 -0.51772422 0.77114195
11.43 -11.929 -0.81900001 0.63658017 0.078561723 -0.48206398 0.80236644
11.402 -11.826 -0.81400001 0.63151062 0.09546867 -0.47791883 0.79770064
11.326 -11.674 -0.80400002 0.63485932 0.20086466 -0.46788073 0.81382143
11.215 -11.487 -0.79000002 0.5817762 0.14956263 -0.44653487 0.74848241
10.528 -10.718 -0.727 0.4590666 0.29406467 -0.51534176 0.7501955
10.481 -10.604 -0.72000003 0.42268047 0.27579817 -0.54434496 0.7423172
10.447 -10.537 -0.71499997 0.43084472 0.26079834 -0.55342579 0.74828005
10.437 -10.46 -0.71100003 0.44902614 0.24199067 -0.5813278 0.773386
10.369 -10.328 -0.70300001 0.46737146 0.15957457 -0.61652774 0.78994089
10.788 -10.676 -0.736 0.42343295 0.38106939 -0.43807495 0.71862298
10.796 -10.617 -0.73400003 0.47410637 0.31646174 -0.53330505 0.7806018
11.432 -11.928 -0.935 0.63407207 0.087426141 -0.47453287 0.79678863
11.395 -11.851 -0.92900002 0.63469088 0.085410833 -0.47249153 0.79584908
11.534 -11.921 -0.93900001 0.64737016 0.067593247 -0.47311458 0.80467033
10.574 -10.857 -0.84100002 0.40193209 0.42133859 -0.62993723 0.85784411
11.471 -11.707 -0.926 0.60206008 0.062361583 -0.45162007 0.75519931
10.47 -10.615 -0.824 0.4085626 0.29503235 -0.55036974 0.74624014
10.41 -10.488 -0.815 0.45452806 0.21414238 -0.61162496 0.7915414
10.381 -10.393 -0.80900002 0.46696007 0.16579415 -0.60993153 0.78584725
10.326 -10.305 -0.80199999 0.45479855 0.18220977 -0.63007659 0.79814702
11.184 -11.095 -0.88200003 0.57501012 0.096284971 -0.47608924 0.75270736
11.142 -10.984 -0.87400001 0.56199384 0.14901336 -0.52769852 0.78518009
11.128 -10.901 -0.87 0.55679476 0.13204181 -0.51706195 0.77123833
11.418 -11.882 -1.013 0.63654828 0.078434929 -0.48480096 0.80397618
11.395 -11.784 -1.006 0.63447356 0.086085141 -0.47530752 0.79742372
11.33 -11.644 -0.99599999 0.63010204 0.13572001 -0.47905901 0.80308533
11.34 -11.581 -0.99299997 0.57644176 0.16574945 -0.46895605 0.76136571
11.318 -11.486 -0.98699999 0.57036161 0.1796585 -0.49497533 0.77626681
11.298 -11.394 -0.98100001 0.57808846 0.11471908 -0.53633511 0.79687017
11.27 -11.295 -0.97399998 0.58907884 0.056568321 -0.56142306 0.81572646
11.117 -11.073 -0.95499998 0.54103988 0.10202225 -0.61346436 0.82430041
11.184 -11.104 -0.95999998 0.5581395 0.084584124 -0.60962951 0.83085638
11.159 -11.01 -0.954 0.56639004 0.12648417 -0.55201823 0.80094945
11.155 -10.938 -0.94999999 0.56278145 0.14347892 -0.53624773 0.79048771
11.4 -11.865 -1.119 0.63451678 0.080029815 -0.5125578 0.81959248
11.391 -11.781 -1.114 0.63533342 0.079235047 -0.50501215 0.81545323
11.325 -11.676 -1.104 0.60611016 0.14476034 -0.54866141 0.83027369
11.309 -11.586 -1.098 0.61132556 0.12573801 -0.56423116 0.8413595
11.292 -11.496 -1.092 0.55006635 0.13337457 -0.67342257 0.87969297
11.266 -11.397 -1.085 0.57046252 0.079102866 -0.66516966 0.87984967
11.255 -11.315 -1.079 0.54623199 0.065188706 -0.69814169 0.88883114
11.192 -11.11 -1.064 0.55392849 0.090615645 -0.61192048 0.83035815
11.157 -11.041 -1.058 0.54276007 0.097362116 -0.61303473 0.82454801
11.138 -10.952 -1.052 0.50931597 0.21465665 -0.64593881 0.85012776
10.963 -11.493 -1.164 -0.60625076 -0.1843112 0.66726148 0.92018938
11.003 -11.463 -1.165 -0.65298188 -0.24861142 0.64298999 0.94954151
11.078 -11.396 -1.165 0.54812652 0.13765649 -0.79793143 0.97779679
11.097 -11.38 -1.165 0.45424008 0.045958817 -0.82654154 0.94425482
11.139 -11.351 -1.166 0.45424008 0.045958817 -0.82654154 0.94425482
11.194 -11.336 -1.169 0.48545036 0.074655317 -0.80623507 0.94406062
11.194 -11.265 -1.164 0.48497677 0.052193616 -0.79484093 0.93257642
11.174 -11.175 -1.158 0.52196676 0.06181008 -0.74261498 0.90980589
11.174 -11.105 -1.153 0.55781215 0.072769903 -0.60861307 0.82876998
11.146 -11.008 -1.146 0.49437809 0.17599356 -0.67211765 0.85271657
11.095 -10.924 -1.138 0.42757547 0.24418844 -0.74776447 0.89532149
11.103 -10.862 -1.1339999 0.43292364 0.27368477 -0.72478354 0.88748938
10.464 -11.001 -1.194 0.0022954196 0.48424062 -0.57333148 0.75046867
10.489 -10.958 -1.193 -0.019743666 0.48330748 -0.5802815 0.75544858
10.541 -10.944 -1.196 -0.022971958 0.47468597 -0.57041502 0.7424472
10.613 -10.949 -1.201 -0.022971958 0.47468597 -0.57041502 0.7424472
10.643 -10.912 -1.2 -0.12071978 0.4335103 -0.59852207 0.74882114
10.692 -10.894 -1.202 -0.16275261 0.42007658 -0.60796547 0.75668675
10.73 -10.898 -1.205 -0.04105749 0.48319441 -0.55330372 0.73573607
