# .PCD v0.7 - Point Cloud Data file format
VERSION 0.7
FIELDS x y z normal_x normal_y normal_z curvature
SIZE 4 4 4 4 4 4 4
TYPE F F F F F F F
COUNT 1 1 1 1 1 1 1
WIDTH 93
HEIGHT 1
VIEWPOINT 0 0 0 1 0 0 0
POINTS 93
DATA ascii
25.975 -7.9920001 1.128 0.49384001 -0.36392274 -0.37117526 0.71699989
25.900999 -7.7909999 1.124 0.48840508 -0.33071622 -0.41509974 0.72126317
25.975 -7.724 1.125 0.3881593 -0.39988521 -0.66046429 0.86416948
25.976 -7.6360002 1.125 -0.33350253 -0.15877725 -0.029566556 0.37055138
25.993999 -7.5970001 1.125 -0.27797595 -0.047771364 -0.061283976 0.28863204
26.353001 -7.612 1.137 -0.11549275 0.1477893 -0.3516745 0.39856645
26.343 -7.5190001 1.135 -0.059665229 0.19538152 -0.39698935 0.44646883
25.937 -7.9829998 0.954 0.48914441 -0.35083821 -0.37352225 0.70842683
25.916 -7.7989998 0.95200002 0.49088192 -0.34205651 -0.38365465 0.7107451
25.962 -7.723 0.95300001 0.45944157 -0.51893955 -0.33969855 0.77186781
25.809 -7.5900002 0.94800001 0.47672299 -0.41872206 -0.39526343 0.74754673
26.142 -7.599 0.95700002 -0.16613512 0.16999394 -0.39518988 0.46116579
26.403999 -7.6300001 0.96399999 0.0040851487 0.19645891 -0.43033871 0.47307947
25.986 -7.9640002 0.82700002 0.48444435 -0.36722022 -0.37450728 0.71399772
25.926001 -7.8569999 0.82499999 0.48346862 -0.38773444 -0.36594093 0.71971709
25.976 -7.783 0.82599998 0.46804219 -0.4643774 -0.39532697 0.76876086
25.990999 -7.6989999 0.82599998 0.38402247 -0.62647104 -0.3671619 0.82142991
25.865 -7.573 0.82200003 0.44122893 -0.53617513 -0.37877798 0.79097378
26.285999 -7.6069999 0.83200002 -0.16986534 0.16870299 -0.41239592 0.47684938
26.327 -7.5289998 0.83200002 -0.11034402 0.18171611 -0.43277711 0.48217484
25.965 -7.9840002 0.62099999 0.46045282 -0.48922312 -0.42321676 0.79402047
25.899 -7.8299999 0.61900002 0.48417795 -0.38665289 -0.41373932 0.74505633
25.950001 -7.757 0.62 0.45072919 -0.50836259 -0.34270641 0.76094484
25.976 -7.6760001 0.62 -0.34761843 0.058194578 -0.40049395 0.53349847
26.091999 -7.6209998 0.62099999 -0.26126277 0.12095934 -0.39471009 0.48855445
26.385 -7.6170001 0.625 -0.017198132 0.19629452 -0.43653187 0.47894403
25.879999 -7.8499999 0.48100001 0.45410505 -0.48625118 -0.40501791 0.77890378
25.948999 -7.7820001 0.48100001 0.39963177 -0.59775084 -0.42002812 0.83272761
25.937 -7.6890001 0.48100001 0.39891401 -0.59847015 -0.36543888 0.80674928
25.972 -7.6110001 0.48100001 0.37573168 -0.62802052 -0.35887846 0.81509376
26.271999 -7.6539998 0.484 -0.13217597 0.17237234 -0.40789166 0.46212369
25.132 -7.8299999 0.28999999 -0.0044643823 0.22448507 -0.35821652 0.42276773
25.334999 -7.849 0.28999999 -0.0044643823 0.22448507 -0.35821652 0.42276773
25.858 -7.8340001 0.292 -0.28697577 0.1131863 -0.35837793 0.47286466
25.896 -7.757 0.292 0.4153102 -0.56076753 -0.37769061 0.79346895
25.972 -7.691 0.292 -0.28839248 0.10378465 -0.40427762 0.50732821
26.087 -7.6360002 0.292 -0.21205069 0.14533764 -0.41402167 0.48734224
26.374001 -7.6300001 0.29300001 -0.075999126 0.19255283 -0.4012945 0.45154151
25.284 -7.8109999 0.16500001 -0.0044643823 0.22448507 -0.35821652 0.42276773
25.487 -7.8299999 0.16500001 -0.016004799 0.21590874 -0.36398175 0.42350379
25.933001 -7.8769999 0.164 0.46478912 -0.44458908 -0.3601101 0.73713475
26.000999 -7.809 0.164 0.353387 -0.6542902 -0.37049645 0.83081025
26.02 -7.7249999 0.164 -0.22439563 0.140423 -0.38338727 0.46589464
26.042 -7.6430001 0.164 -0.20319025 0.14970535 -0.38730353 0.46227914
26.306 -7.6300001 0.164 -0.092496082 0.18485054 -0.36754957 0.42168465
26.540001 -7.6079998 0.164 -0.047725603 0.21715632 -0.40953934 0.46600115
25.313999 -7.8099999 -0.003 -0.0040316917 0.23578757 -0.3653481 0.43484625
25.875 -7.8499999 -0.0070000002 0.47036061 -0.44498205 -0.37225172 0.74687314
25.952999 -7.7849998 -0.0080000004 0.45690978 -0.47274166 -0.38499281 0.76188624
25.947001 -7.6939998 -0.0070000002 -0.34621686 0.091067523 -0.41597286 0.54881036
25.996 -7.6199999 -0.0080000004 -0.29476196 0.1226216 -0.39877105 0.51082188
26.334 -7.6300001 -0.0099999998 -0.055632956 0.20418692 -0.41656777 0.46724302
26.003 -8.0749998 -0.176 0.47565436 -0.22785586 -0.37735647 0.64850849
25.944 -7.967 -0.175 0.48173404 -0.37849846 -0.37817815 0.71996355
25.917 -7.7810001 -0.17399999 0.48180687 -0.35426036 -0.43530232 0.73967987
25.945999 -7.7459998 -0.17399999 0.47283936 -0.39057237 -0.40881336 0.73705643
25.924 -7.651 -0.17299999 0.40991873 -0.53190899 -0.42571548 0.79510641
26.152 -7.6279998 -0.176 -0.21075222 0.16783065 -0.43147352 0.50867772
26.424999 -7.618 -0.18000001 -0.012027805 0.21400291 -0.4442454 0.49325034
25.976 -8.0600004 -0.36500001 0.48509029 -0.29070219 -0.36008224 0.67043239
25.889 -7.8540001 -0.36199999 0.40826195 -0.51383889 -0.52945232 0.84322476
25.973 -7.7909999 -0.36300001 -0.38219744 0.049461395 -0.35491019 0.52391082
25.966 -7.6999998 -0.36300001 -0.26804399 0.16009697 -0.41360089 0.51821262
26.013 -7.6700001 -0.36399999 -0.34968957 0.098703474 -0.43998653 0.57062536
26.332001 -7.6739998 -0.37 -0.068228811 0.20827523 -0.45119637 0.50160933
26.518 -7.638 -0.37400001 -0.097533718 0.20450693 -0.45842063 0.51135641
25.065001 -7.8299999 -0.47999999 -0.026396073 0.22562671 -0.29897609 0.37548751
25.357 -7.8330002 -0.48699999 -0.042368792 0.20559433 -0.25010598 0.3265228
25.648001 -7.8340001 -0.495 -0.11688551 0.2062746 -0.26910615 0.35864961
25.945999 -7.836 -0.50199997 -0.2084634 0.15990829 -0.28446776 0.3872332
25.985001 -7.8039999 -0.50300002 -0.16480677 0.17718226 -0.29860958 0.38434687
25.889999 -7.6869998 -0.5 -0.13956347 0.21050483 -0.36084586 0.4404543
26.114 -7.664 -0.505 -0.10227802 0.232236 -0.42576048 0.4956474
26.417999 -7.6630001 -0.51300001 -0.0095621459 0.21548557 -0.46389607 0.51159072
24.981001 -7.7909999 -0.63300002 -0.035918996 0.21262856 -0.22527491 0.31184909
25.249001 -7.7880001 -0.64099997 -0.040767096 0.20839712 -0.23102355 0.31378847
25.504999 -7.7789998 -0.64899999 -0.046800483 0.19917917 -0.22387004 0.30328274
25.691999 -7.7480001 -0.65499997 -0.071535781 0.212888 -0.27057594 0.35163903
25.846001 -7.7059999 -0.65899998 -0.095430061 0.2153368 -0.30908841 0.38860321
25.962 -7.697 -0.662 -0.13222253 0.20638481 -0.32401255 0.40627778
26.214001 -7.6820002 -0.67000002 -0.048250929 0.24240661 -0.42861575 0.49477327
26.451 -7.6620002 -0.67699999 0.015251741 0.21802148 -0.43454835 0.48641366
24.874001 -7.631 -0.79900002 0.0050500631 0.19412051 -0.18760636 0.27000818
25.187 -7.6409998 -0.81099999 -0.011806076 0.21815778 -0.24301538 0.32678539
25.488001 -7.6440001 -0.82200003 -0.059962362 0.22535373 -0.26756579 0.35492429
25.799999 -7.6490002 -0.833 -0.084191307 0.23421815 -0.31688723 0.40294394
26.108999 -7.652 -0.84500003 0.013821137 0.23256111 -0.32306045 0.39830106
26.438 -7.7030001 -0.85799998 0.031719454 0.21750134 -0.43694866 0.4891187
25.017 -7.6890001 -0.95999998 0.0093684215 0.23478873 -0.27676463 0.36305946
25.246 -7.6719999 -0.97000003 -0.043520823 0.24006334 -0.31238031 0.39636588
25.551001 -7.678 -0.98299998 -0.041945823 0.23656741 -0.30555841 0.38870236
25.860001 -7.6830001 -0.99599999 -0.091067061 0.20491101 -0.23231739 0.32288247
26.466 -7.6830001 -1.022 0.043974232 0.21576726 -0.45527327 0.50573015
