# .PCD v0.7 - Point Cloud Data file format
VERSION 0.7
FIELDS x y z normal_x normal_y normal_z curvature
SIZE 4 4 4 4 4 4 4
TYPE F F F F F F F
COUNT 1 1 1 1 1 1 1
WIDTH 68
HEIGHT 1
VIEWPOINT 0 0 0 1 0 0 0
POINTS 68
DATA ascii
-18.188 -4.5549998 -0.51899999 0.29008502 -0.41291147 -0.17530724 0.53420764
-18.129 -4.6009998 -0.51700002 0.29629835 -0.41683945 -0.17388692 0.54017079
-18.111 -4.6570001 -0.51700002 0.16567698 -0.41393957 -0.099117666 0.45674843
-18.188999 -4.7379999 -0.52100003 0.02963908 -0.3900933 -0.060354739 0.39584586
-18.382 -4.8509998 -0.52899998 -0.1436722 -0.25314602 -0.037508488 0.29348168
-18.806999 -4.9949999 -0.546 -0.094136208 0.25963977 -0.72647536 0.77720064
-19.125 -5.145 -0.55900002 0.22216563 -0.5544036 -0.22372676 0.63778883
-17.729 -4.625 -0.611 0.25031799 -0.26487279 -0.055919409 0.36870539
-18.305 -4.836 -0.639 -0.14173767 -0.25027516 -0.03793475 0.29011422
-18.462 -4.9390001 -0.64600003 -0.05466998 0.32159787 -0.27746338 0.42825216
-18.997 -5.1129999 -0.671 0.22216563 -0.5544036 -0.22372676 0.63778883
-19.164 -5.2220001 -0.68000001 0.21298318 -0.55473924 -0.22527224 0.63548803
-18.537001 -4.7140002 -0.75700003 0.21369484 0.29522106 -0.25556362 0.44512215
-18.503 -4.7670002 -0.75599998 0.24695604 0.13385811 -0.867015 0.91138375
-17.556999 -4.6399999 -0.708 0.39006966 -0.068586141 -0.13120109 0.41721952
-18.179001 -4.8670001 -0.74199998 -0.14826858 -0.25137967 -0.038253188 0.2943444
-18.382 -4.9829998 -0.75300002 0.23856935 0.12992574 -0.86681747 0.9083879
-18.884001 -5.184 -0.77999997 0.20959641 -0.53764474 -0.20539024 0.61251748
-19.188 -5.3000002 -0.796 0.21715832 -0.53785586 -0.20707002 0.61589342
-17.528999 -4.6009998 -0.82200003 0.4658868 -0.23646533 -0.25713152 0.58230835
-17.537001 -4.6620002 -0.82300001 0.4658868 -0.23646533 -0.25713152 0.58230835
-17.622999 -4.744 -0.829 0.46180677 -0.23879004 -0.25693083 0.57991344
-17.469 -4.7620001 -0.82099998 0.3972722 -0.28612521 -0.20360783 0.53023481
-17.466 -4.8200002 -0.82200003 0.45523241 -0.23046024 -0.25919646 0.57230347
-19.261999 -5.4109998 -0.92799997 0.01905505 0.30639195 -0.68628377 0.75181419
-17.452999 -4.5240002 -0.91299999 0.4272407 -0.3044003 -0.23713437 0.57569683
-17.431 -4.5770001 -0.912 0.40284976 -0.30010599 -0.2202324 0.54850143
-18.705999 -5.2610002 -0.99900001 0.092460856 0.33409908 -0.60007375 0.69300771
-19.073 -5.4299998 -1.024 -0.12413928 0.29759249 -0.60858631 0.68873012
-18.174999 -5.0760002 -1.096 -0.1637565 0.32890105 -0.48789591 0.61076552
-16.854 -4.4510002 -1.0829999 -0.18479629 0.36112601 -0.5298115 0.66727948
-16.992001 -4.5450001 -1.095 -0.20905606 0.351392 -0.51633573 0.65862232
-17.232 -4.6680002 -1.114 -0.1884402 0.32953957 -0.63497996 0.73980105
-17.518999 -4.7750001 -1.137 -0.17405175 0.33632243 -0.61320424 0.7207123
-17.905001 -4.9419999 -1.1670001 -0.16081284 0.33352071 -0.45210353 0.5843752
-18.277 -5.1069999 -1.197 -0.13765919 0.34083158 -0.42930815 0.56517404
-18.783001 -5.3130002 -1.237 -0.15066689 0.31550598 -0.46691611 0.583314
-19.195999 -5.4949999 -1.27 -0.12590748 0.3138026 -0.53972864 0.63689226
-16.688999 -4.4320002 -1.184 -0.18879145 0.36587995 -0.53083456 0.67178541
-17.049999 -4.5840001 -1.215 -0.20997372 0.34753996 -0.51559937 0.65628934
-17.215 -4.6859999 -1.23 -0.16847865 0.34104222 -0.62644327 0.73288882
-17.617001 -4.855 -1.265 -0.17409471 0.346389 -0.46406513 0.60469061
-18.013 -4.994 -1.299 -0.16609469 0.32940775 -0.47632268 0.60247838
-18.309999 -5.138 -1.325 -0.13765919 0.34083158 -0.42930815 0.56517404
-19.106001 -5.4239998 -1.392 -0.16870126 0.30516881 -0.48205182 0.5949471
-16.955999 -4.5549998 -1.308 -0.2091403 0.35135081 -0.51631939 0.65861428
-17.195 -4.678 -1.331 -0.19435677 0.35032243 -0.5104183 0.64886612
-17.77 -4.895 -1.3839999 -0.16770767 0.33753812 -0.4606109 0.59516406
-18.143999 -5.0599999 -1.418 -0.15647663 0.33851412 -0.43245941 0.57104981
-18.740999 -5.2909999 -1.473 -0.10081558 0.33262429 -0.4506622 0.56912136
-18.969 -5.388 -1.494 -0.17444141 0.30468065 -0.46437615 0.58215576
-19.176001 -5.5120001 -1.5140001 -0.1529786 0.3055355 -0.50245184 0.60762835
-16.902 -4.5079999 -1.4069999 -0.20063011 0.35419551 -0.52263522 0.66246092
-17.152 -4.631 -1.432 -0.22094895 0.33738658 -0.50503099 0.64630055
-17.757999 -4.8540001 -1.4910001 -0.13822597 0.34591854 -0.42655528 0.56631744
-18.358999 -5.0799999 -1.55 -0.080178171 0.35697368 -0.40929651 0.54898304
-18.847 -5.2779999 -1.598 -0.090829924 0.33184373 -0.39733195 0.52558827
-18.851999 -5.3429999 -1.6 -0.14101109 0.3192358 -0.41513816 0.54234242
-19.032 -5.4580002 -1.619 -0.1809645 0.30144858 -0.47684056 0.59244943
-18.909 -5.2859998 -1.728 -0.13283329 0.31263727 -0.38509437 0.51350212
-18.891001 -5.3449998 -1.728 -0.15153499 0.3091501 -0.37970108 0.51255196
-19.188 -5.4949999 -1.76 -0.19907919 0.28235418 -0.48081672 0.59206516
-18.802 -5.1220002 -1.834 0.2365419 0.20874032 -0.17207408 0.35935229
-18.792999 -5.184 -1.835 0.23734538 0.27475357 -0.28553104 0.4618986
-18.704 -5.2220001 -1.827 0.24149793 0.26081973 -0.28199556 0.45372865
-18.659 -5.2729998 -1.824 0.24423988 0.25391555 -0.27933085 0.44961312
-18.611 -5.2909999 -1.819 0.24680775 0.25184065 -0.27811807 0.44909626
-18.554001 -5.3379998 -1.8150001 0.25580055 0.2452473 -0.27536857 0.44878504
