# .PCD v0.7 - Point Cloud Data file format
VERSION 0.7
FIELDS x y z normal_x normal_y normal_z curvature
SIZE 4 4 4 4 4 4 4
TYPE F F F F F F F
COUNT 1 1 1 1 1 1 1
WIDTH 52
HEIGHT 1
VIEWPOINT 0 0 0 1 0 0 0
POINTS 52
DATA ascii
-39.615002 19.291 0.138 0.53844357 -0.065440364 -0.053994268 0.5450865
-39.535 19.099001 0.138 0.35319865 -0.44710442 -0.31012473 0.64871335
-39.708 19.028999 0.138 0.02428171 0.37946317 -0.60106087 0.71123558
-39.999001 19.014 0.138 0.17482352 0.40638188 -0.44043928 0.62425655
-40.271999 18.989 0.13699999 -0.45828772 0.52312082 -0.31080988 0.76176494
-39.450001 19.771 -0.142 0.085035294 0.017659415 -0.28840989 0.30120277
-39.458 19.620001 -0.142 0.71053988 0.0048701093 -0.46766821 0.8506493
-39.466 19.469 -0.141 0.70700896 -0.05301255 -0.32937256 0.78176612
-39.347 19.257 -0.139 0.5370515 -0.073264629 -0.37097865 0.65682352
-39.403999 19.209 -0.14 0.48642176 -0.30415389 -0.36529619 0.68011546
-39.453999 19.079 -0.14 0.47376874 -0.32279482 -0.35541156 0.67451513
-39.706001 19.048 -0.141 -0.096587777 0.38822711 -0.59632403 0.71808898
-39.979 19.025 -0.14300001 -0.47323295 0.52250618 -0.29081652 0.76258528
-40.202999 18.976999 -0.145 -0.48827142 0.52001184 -0.30349135 0.77519566
-39.472 19.681 -0.41299999 0.082226902 0.080545411 -0.28188178 0.30447686
-39.456001 19.518 -0.412 0.079261094 0.10278388 -0.28417906 0.31241733
-39.398998 19.336 -0.41 0.51691973 -0.091932036 -0.50360364 0.7275123
-39.429001 19.197001 -0.40900001 0.51417559 -0.1404655 -0.50052786 0.73118758
-39.432999 19.047001 -0.40799999 -0.29225916 0.27232945 -0.4885672 0.63109165
-39.569 19.035999 -0.41 -0.25203815 0.33401281 -0.49497664 0.64814323
-39.838001 19.011 -0.41299999 -0.46505994 0.52351427 -0.28515607 0.75608331
-40.091 18.976999 -0.41600001 -0.51520181 0.51589948 -0.28158247 0.7815842
-39.464001 19.701 -0.72000003 0.066852868 0.14646959 -0.33744752 0.37388968
-39.463001 19.546 -0.71799999 0.075217694 0.10763149 -0.33499101 0.35980719
-39.382999 19.351999 -0.71499997 0.40670753 -0.025603469 -0.54681987 0.68196666
-39.452 19.232 -0.71499997 0.44550002 -0.18315265 -0.54016179 0.72373331
-39.449001 19.077999 -0.71399999 -0.3421765 0.25049269 -0.40965378 0.58961648
-39.653 19.023001 -0.71700001 -0.20814414 0.42172751 -0.41478953 0.62707931
-39.894001 19.062 -0.722 -0.51042044 0.51686698 -0.27667886 0.77732342
-40.043999 18.979 -0.72399998 -0.50925475 0.5170927 -0.27670899 0.77671945
-39.529999 19.635 -0.94599998 0.080378145 0.094935104 -0.28666887 0.31249377
-39.518002 19.475 -0.94400001 0.083920747 0.062027436 -0.27651668 0.295553
-39.424 19.275 -0.94 0.40767115 -0.11664645 -0.47977969 0.64030516
-39.466999 19.219 -0.94 0.38130292 -0.22270361 -0.44481495 0.62677681
-39.494999 19.079 -0.93900001 0.30477062 -0.36654285 -0.48909768 0.68297535
-39.744999 19.047001 -0.94499999 -0.28268057 0.43368793 -0.46847492 0.69818497
-40.013 19.02 -0.95099998 -0.57497692 0.49710503 -0.32790741 0.82778931
-40.127998 18.921 -0.95200002 -0.69185942 0.44103473 -0.24543981 0.85640049
-39.460999 19.773001 -1.2079999 0.084696203 0.045384612 -0.26585487 0.28268716
-39.470001 19.622 -1.206 0.076383054 0.11410163 -0.24619858 0.28189945
-39.446999 19.455999 -1.2029999 0.35216624 -0.0046488605 -0.45457724 0.57505053
-39.387001 19.273001 -1.199 0.41010335 -0.066449948 -0.45687413 0.61752272
-39.448002 19.15 -1.199 0.34080553 -0.31386197 -0.48154768 0.6682409
-39.48 19.087999 -1.199 0.30565873 -0.36233434 -0.44525826 0.65036017
-39.724998 19.054001 -1.206 -0.25382495 0.43611991 -0.54524785 0.74291515
-39.493 19.676001 -1.497 0.076789767 0.10895388 -0.31657773 0.34349537
-39.494999 19.521999 -1.494 0.080637395 0.079118937 -0.31976429 0.33913329
-39.402 19.323 -1.488 0.35279876 -0.034190942 -0.51428336 0.62459856
-39.460999 19.198 -1.488 0.33772117 -0.13640891 -0.56795728 0.67471361
-39.469002 19.049 -1.485 0.27209735 -0.40285864 -0.45798326 0.66789275
-39.634998 18.975 -1.49 -0.39500612 0.3812432 -0.54170662 0.77124721
-39.511002 19.671 -1.7589999 0.083872527 0.016814964 -0.31340247 0.32486683
