# .PCD v0.7 - Point Cloud Data file format
VERSION 0.7
FIELDS x y z normal_x normal_y normal_z curvature
SIZE 4 4 4 4 4 4 4
TYPE F F F F F F F
COUNT 1 1 1 1 1 1 1
WIDTH 303
HEIGHT 1
VIEWPOINT 0 0 0 1 0 0 0
POINTS 303
DATA ascii
27.965 8.1660004 1.0089999 0.0074988985 0.12933666 -0.2753596 0.30431417
27.683001 8.1789999 1.002 0.044939656 0.43985134 -0.29484677 0.53143525
27.402 8.1899996 0.99400002 0.042585433 0.37476343 -0.2879 0.47449717
27.136999 8.2040005 0.98799998 0.047623709 0.34411147 -0.2811873 0.44693065
26.870001 8.2150002 0.98100001 0.069289483 0.31884634 -0.27782601 0.42854559
26.603001 8.2250004 0.97399998 0.053721178 0.29079655 -0.3792966 0.48095167
26.343 8.2360001 0.96700001 0.045403872 0.25796324 -0.31619757 0.41059405
26.120001 8.2110004 0.96100003 0.037653122 0.271485 -0.43095192 0.51072639
25.865 8.2209997 0.954 0.030657588 0.24910381 -0.4340958 0.50142974
25.625999 8.2340002 0.94800001 0.059079595 0.24679407 -0.47051603 0.53458679
25.396 8.2489996 0.94199997 0.061707258 0.24674165 -0.46912417 0.53363538
25.159 8.2589998 0.93599999 0.028050445 0.24218309 -0.42897359 0.49341443
24.816 8.2329998 0.92699999 0.021680281 0.23036247 -0.44369671 0.50040352
24.658001 8.2670002 0.92299998 0.050554633 0.23042399 -0.43928844 0.49862343
24.445999 8.2390003 0.917 0.031078339 0.23343414 -0.40917152 0.47210029
24.23 8.2510004 0.912 0.036591113 0.22438043 -0.40422577 0.46377146
23.996 8.2559996 0.90600002 0.032657757 0.2049813 -0.2781741 0.34708023
23.774 8.2629995 0.89999998 0.056083202 0.22052214 -0.36003456 0.42591104
23.572001 8.2770004 0.89499998 0.071000025 0.19278347 -0.32760108 0.38668972
23.356001 8.283 0.88999999 0.058558606 0.17142299 -0.30319151 0.35318556
23.158001 8.2959995 0.88499999 0.040907696 0.17571896 -0.38228691 0.42272198
22.972 8.2700005 0.88 0.053365029 0.17529103 -0.38831767 0.42937788
22.768999 8.2779999 0.87400001 0.064524502 0.14347011 -0.33230269 0.36765766
22.582001 8.29 0.87 0.087188855 0.13371336 -0.306752 0.34580043
22.386999 8.2989998 0.86500001 0.077950217 0.13487864 -0.33213964 0.36685857
22.177 8.3009996 0.85900003 0.084561214 0.13204661 -0.38680735 0.41738093
22.000999 8.3140001 0.85500002 0.10714123 0.11271697 -0.33410266 0.36852264
21.809999 8.3199997 0.85000002 0.092875339 0.086012214 -0.28517351 0.31200618
21.636999 8.2930002 0.84500003 0.087245278 0.078002244 -0.25308374 0.27883232
21.452 8.3000002 0.84100002 0.081647411 0.072306633 -0.22912219 0.25375485
27.631001 8.2019997 0.86500001 0.064128876 0.44545758 -0.30796456 0.54533213
27.365999 8.217 0.85900003 0.04700505 0.36811772 -0.27386928 0.46122068
27.083 8.2250004 0.85299999 0.050564881 0.33886778 -0.26999623 0.43621799
26.82 8.2370005 0.847 0.058805719 0.29869273 -0.2726779 0.40869144
26.559999 8.2480001 0.84200001 0.058165029 0.28873646 -0.37799424 0.47919887
26.297001 8.257 0.83600003 0.05259534 0.27292949 -0.47889102 0.55370873
26.054001 8.2700005 0.83099997 0.039065108 0.2712031 -0.46345636 0.53839487
25.833 8.2449999 0.82599998 0.036664788 0.24822357 -0.46064517 0.5245505
25.59 8.2550001 0.82099998 0.047937114 0.24783733 -0.46285081 0.52721173
25.351 8.2659998 0.81599998 0.066452503 0.24645528 -0.46875736 0.53375053
25.145 8.2860003 0.81099999 0.024825247 0.24060518 -0.4673928 0.52627289
24.891001 8.2889996 0.80599999 0.041402649 0.22984776 -0.45430955 0.51082414
24.622999 8.2849998 0.80000001 0.038390644 0.23457816 -0.44794253 0.50710285
24.400999 8.2959995 0.79500002 0.016595274 0.23028618 -0.45531884 0.51051188
24.205 8.2720003 0.79100001 0.080029592 0.22171634 -0.40044254 0.46466881
23.969 8.2749996 0.78600001 0.044915356 0.21510005 -0.32141429 0.38934889
23.750999 8.283 0.78100002 0.088497192 0.20920146 -0.35413408 0.42072314
23.540001 8.2919998 0.77700001 0.072661713 0.17282397 -0.3133769 0.36517519
23.329 8.3000002 0.77200001 0.058558606 0.17142299 -0.30319151 0.35318556
23.107 8.3030005 0.76800001 0.046332188 0.1742847 -0.40633267 0.44455379
22.893 8.2659998 0.76300001 0.079054624 0.16992387 -0.39850616 0.44037589
22.691999 8.2740002 0.75800002 0.093100712 0.13421988 -0.34092781 0.37804031
22.493999 8.2819996 0.75400001 0.081989557 0.134691 -0.34428278 0.37867478
22.313999 8.2950001 0.75 0.071425758 0.13492003 -0.34605521 0.37823173
22.122999 8.3030005 0.74599999 0.10941364 0.11730531 -0.35550869 0.39002344
21.924999 8.3070002 0.74199998 0.10050899 0.090436876 -0.30586928 0.33442023
21.731001 8.3120003 0.73799998 0.082778133 0.077323765 -0.27956051 0.30163762
21.406 8.3030005 0.73100001 0.093412034 0.068836659 -0.26474702 0.28905931
21.263 8.3240004 0.72799999 0.093625993 0.056686431 -0.24766971 0.27077568
28.052 8.1999998 0.65200001 0.16303159 0.11113232 -0.32330593 0.37875643
27.917 8.2559996 0.65100002 0.1195468 0.098475397 -0.26171175 0.30410832
27.719 8.3400002 0.648 0.0854249 0.4484067 -0.39481688 0.60352826
27.455 8.3549995 0.64399999 0.05797936 0.40856135 -0.39608455 0.57198507
27.186001 8.3660002 0.63999999 0.06333103 0.34118643 -0.37903535 0.51389378
26.9 8.3710003 0.63599998 0.004872404 0.32811451 -0.38383466 0.50498706
26.122 8.2200003 0.62400001 0.057185099 0.26897442 -0.49274769 0.5642851
25.884001 8.2349997 0.62099999 0.029053463 0.24522522 -0.49355853 0.55188721
25.656 8.2069998 0.61699998 0.05402993 0.24578261 -0.48423642 0.54572266
25.427999 8.2220001 0.61400002 0.068478405 0.24486089 -0.48460633 0.54725629
25.195 8.2349997 0.611 0.03576982 0.23901063 -0.48744932 0.54407024
24.879999 8.2189999 0.60600001 0.048374269 0.22050762 -0.46452922 0.51647949
24.702999 8.2460003 0.60399997 0.052523244 0.22876042 -0.46682563 0.52250952
24.472 8.2550001 0.60100001 0.030355468 0.22632256 -0.45655221 0.51047361
24.221001 8.2550001 0.597 0.13467053 0.2128197 -0.39506766 0.46851555
23.924 8.2390003 0.59299999 -0.0026211627 0.20769784 -0.33660012 0.39553118
23.917 8.2779999 0.59299999 -0.0026211627 0.20769784 -0.33660012 0.39553118
23.906 8.3579998 0.59299999 -0.0026211627 0.20769784 -0.33660012 0.39553118
24.056999 8.4960003 0.59600002 -0.34912178 0.0053241253 -0.24872728 0.42869526
24.209 8.6350002 0.59899998 0.20943096 -0.23936602 0.048756957 0.32176802
22.958 8.2720003 0.579 0.074257441 0.17163786 -0.40044868 0.44196478
24.664 8.9720001 0.60699999 0.4453339 -0.41923624 -0.20958973 0.64653629
22.577 8.2959995 0.574 0.08194311 0.13458875 -0.34902397 0.38294455
22.535999 8.3210001 0.57300001 0.082058251 0.13452086 -0.35123488 0.38496149
22.193001 8.2740002 0.56800002 0.089166433 0.11947793 -0.32542056 0.35794437
22.004 8.2819996 0.565 0.12364484 0.10686165 -0.33700719 0.37454146
21.856001 8.3050003 0.56300002 0.10152299 0.085096866 -0.30050761 0.32841012
24.52 9.4020004 0.60699999 0.21452489 0.13284802 -0.67065418 0.71655184
24.573999 9.5120001 0.60900003 0.24541105 0.10940084 -0.67399919 0.72558254
21.285 8.3190002 0.55500001 0.091037117 0.067530692 -0.26632789 0.28944549
27.775 8.3330002 0.5 0.14997949 0.42702052 -0.47197548 0.65391225
27.507999 8.3470001 0.498 0.0572429 0.41785133 -0.50010693 0.65420443
27.233 8.3570004 0.495 0.073231161 0.38435748 -0.48808393 0.62555528
26.957001 8.3649998 0.49200001 0.035675064 0.33781216 -0.48340455 0.59082121
26.256001 8.1920004 0.48500001 0.040700875 0.27142802 -0.45756939 0.53357238
25.986 8.1969995 0.48300001 0.026360376 0.26334655 -0.46566534 0.53562158
25.736 8.2069998 0.47999999 0.046977177 0.24807239 -0.45943817 0.52424252
25.499001 8.2189999 0.47799999 0.072243132 0.24685708 -0.45493898 0.52261549
25.273001 8.2340002 0.47600001 0.061183497 0.23947191 -0.45677385 0.51935786
24.978001 8.224 0.47299999 0.034799129 0.22245389 -0.43661991 0.49125722
24.815001 8.257 0.472 0.05096902 0.23044527 -0.43821096 0.49772653
24.584 8.2229996 0.46900001 0.062546082 0.23016679 -0.43515405 0.49623364
24.355 8.2309999 0.46700001 0.032971859 0.22376397 -0.45606288 0.50906855
24.091 8.2259998 0.46399999 0.20363757 0.19112477 -0.37470222 0.46733147
23.961 8.2659998 0.463 0.29035658 0.13945132 -0.28510964 0.43016407
23.905001 8.3310003 0.463 0.49418116 -0.086525053 -0.27167475 0.57053375
24.014 8.4540005 0.465 0.5303719 -0.41902977 -0.4012666 0.78606308
24.021 8.5410004 0.465 0.48729491 -0.47271624 -0.45072824 0.81490672
23.08 8.2460003 0.45500001 0.038946398 0.16894874 -0.42204982 0.45627466
22.881001 8.2559996 0.45300001 0.10958084 0.1632843 -0.40440062 0.4496772
22.673 8.2609997 0.45100001 0.1035223 0.13353333 -0.33744249 0.37737972
24.351999 8.9619999 0.46900001 0.2776061 -0.39783362 -0.0019211769 0.48511899
24.614 9.1470003 0.47299999 0.48665005 -0.31485313 -0.23860191 0.62681067
24.667999 9.2550001 0.47299999 0.4925186 -0.12015581 -0.35016578 0.61613965
24.638 9.3319998 0.47299999 0.40597191 0.055223286 -0.42279792 0.58874518
24.615999 9.368 0.47299999 0.21492693 0.18510136 -0.53875887 0.6088655
24.333 9.3479996 0.47099999 0.39655608 -0.19065259 -0.75462097 0.87353188
21.362 8.2799997 0.43900001 0.098845929 0.080141783 -0.27804738 0.30578354
21.223 8.3030005 0.43799999 0.090274759 0.056919634 -0.23194087 0.25531536
27.914 8.2849998 0.29899999 0.15138656 0.052909374 -0.23667939 0.28589234
27.608 8.2889996 0.29800001 0.048304535 0.41823265 -0.49593174 0.65053838
27.330999 8.2989998 0.29699999 0.076567441 0.38413772 -0.49398434 0.63043231
27.070999 8.3140001 0.296 0.054233689 0.33322877 -0.47962803 0.58653706
26.789 8.3199997 0.29499999 -0.00083431602 0.31627882 -0.47586471 0.57138449
26.063999 8.1850004 0.29300001 0.044556912 0.27164251 -0.43802491 0.51734006
25.837999 8.1590004 0.292 0.027203698 0.24892733 -0.41839328 0.48760414
25.598 8.1719999 0.292 0.063726217 0.24769744 -0.41264358 0.48547891
25.367001 8.1859999 0.29100001 0.057551101 0.24809009 -0.41353649 0.48566785
25.124001 8.1949997 0.28999999 0.070116639 0.22988823 -0.39778623 0.46475673
24.916 8.2139997 0.28999999 0.056394987 0.22258097 -0.39381021 0.45586091
24.638 8.2089996 0.289 0.048762284 0.22985521 -0.40155303 0.46524835
24.426001 8.224 0.28799999 0.013606582 0.23357606 -0.41694018 0.47810254
24.202999 8.191 0.287 0.16633774 0.20088801 -0.35182798 0.43795794
23.962999 8.1940002 0.287 0.54727012 -0.37971497 -0.39023095 0.77198982
23.924 8.2650003 0.287 0.54727012 -0.37971497 -0.39023095 0.77198982
23.996 8.3739996 0.287 0.54209709 -0.40466326 -0.39888734 0.78532332
23.952999 8.4440002 0.287 0.54209709 -0.40466326 -0.39888734 0.78532332
24.395 8.6850004 0.28799999 -0.21676698 0.16705835 -0.40356311 0.48760599
24.643 8.8599997 0.289 0.36687434 -0.56122816 -0.21665895 0.70463812
24.612 8.8929996 0.289 0.45468089 -0.48622853 -0.26510704 0.7165435
24.396 8.9020004 0.289 0.31526637 -0.57103574 -0.14458936 0.66811734
24.283001 8.948 0.28799999 0.14687721 -0.24951598 0.069046915 0.29765519
24.613001 9.1569996 0.28999999 0.51203495 -0.23654322 -0.31037626 0.64379025
24.605 9.2419996 0.28999999 0.51580161 -0.18866569 -0.37729856 0.66633344
24.598 9.3269997 0.28999999 0.39840671 0.066124111 -0.48393685 0.63031358
24.431999 9.3529997 0.289 0.26729465 0.17363665 -0.48075527 0.57682037
24.287001 9.3409996 0.289 0.37932682 -0.62319386 -0.35617763 0.81186324
27.905001 8.3599997 0.161 0.10640286 0.062001884 -0.21760599 0.25003633
27.607 8.3649998 0.162 0.051464736 0.43580782 -0.47698575 0.64814544
27.336 8.3769999 0.162 0.075394005 0.38428798 -0.48000151 0.61948603
27.08 8.3909998 0.163 0.05056135 0.33332253 -0.46317574 0.57288057
26.481001 8.2959995 0.163 -0.12220201 -0.4030689 -0.01630792 0.42150185
26.076 8.2589998 0.164 0.029182706 0.27003962 -0.40524766 0.48785111
25.848 8.2309999 0.164 0.038140841 0.25470665 -0.39790595 0.47398242
25.612 8.2449999 0.16500001 0.056841202 0.24588883 -0.38085547 0.45688418
25.372999 8.2559996 0.16500001 0.054011654 0.24590737 -0.37973881 0.45561963
25.15 8.2700005 0.16500001 0.068910524 0.23241088 -0.3818652 0.4523102
24.922001 8.2819996 0.16599999 0.058384087 0.22247472 -0.39236856 0.45481512
24.663 8.2819996 0.16599999 0.048056606 0.22989976 -0.40265986 0.46615267
24.429001 8.2880001 0.16599999 0.077321932 0.2297678 -0.37572208 0.4471454
24.038 8.2819996 0.167 0.24038625 0.17732096 -0.38625509 0.48828399
24.073999 8.3789997 0.167 -0.15703785 0.16868699 -0.3860842 0.4496412
24.065001 8.4610004 0.167 0.5129438 -0.48893735 -0.38077506 0.80446297
23.983 8.5170002 0.167 0.48199153 -0.54699379 -0.3719748 0.81846398
24.625999 8.8330002 0.16599999 0.3888739 -0.57747805 -0.2580249 0.74248272
24.705999 8.9490004 0.16599999 0.51495194 -0.35024849 -0.34424269 0.71158451
24.632999 8.967 0.16599999 0.51148587 -0.3974517 -0.35043567 0.73647189
24.4 8.9689999 0.16599999 0.45897704 -0.52547199 -0.4497216 0.83007848
24.576 9.1210003 0.16599999 0.53195447 -0.28632385 -0.40864071 0.72934502
24.671 9.2449999 0.16599999 0.52394789 -0.21463132 -0.43187135 0.71211016
24.698 9.3439999 0.16599999 0.50332004 -0.11194241 -0.43569222 0.67504805
24.669001 9.4209995 0.16599999 0.43147263 0.028503567 -0.44816557 0.62276274
24.395 9.4040003 0.16599999 0.19621472 0.20418453 -0.43845347 0.52195114
21.419001 8.2930002 0.171 0.10571599 0.077066362 -0.25706735 0.28844187
21.289 8.3190002 0.171 0.13325681 0.071838796 -0.25595567 0.29737434
27.441 8.3219995 -0.02 0.048747901 0.3821035 -0.43299991 0.5795415
27.172001 8.3339996 -0.017999999 0.088980101 0.36304331 -0.45116928 0.58589387
26.931999 8.3529997 -0.016000001 0.049134728 0.33739436 -0.43627897 0.55370438
26.15 8.2010002 -0.0099999998 -0.010172568 0.26868808 -0.43909502 0.51487976
25.929001 8.2220001 -0.0080000004 0.069677703 0.26011807 -0.37281257 0.4598974
24.999001 8.2309999 -0.0020000001 0.084156029 0.22997651 -0.39347368 0.46345761
24.753 8.2370005 0 0.065274328 0.22946548 -0.4038772 0.46907562
24.503 8.2390003 0.0020000001 0.034848008 0.23359197 -0.4031969 0.46727651
24.252001 8.2399998 0.0040000002 0.19443376 0.19509971 -0.44935745 0.52705836
23.847 8.1870003 0.0070000002 0.53516757 -0.45065174 -0.35434157 0.78425074
23.900999 8.2469997 0.0070000002 0.5443905 -0.41078663 -0.33460009 0.75964719
24.004999 8.3669996 0.0060000001 0.51350701 -0.5092032 -0.38682464 0.82012844
24.000999 8.4510002 0.0049999999 0.48682213 -0.55650616 -0.37223187 0.82779914
24.275999 8.6330004 0.003 0.42381227 -0.57876229 -0.43232295 0.83754748
24.653999 8.8540001 -0.001 0.4869436 -0.054274499 -0.39072639 0.62667924
24.646999 8.9390001 -0.001 0.53399205 -0.28366137 -0.403097 0.72670382
24.334 8.9560003 0.0020000001 0.45755076 -0.52777559 -0.39417571 0.8020438
24.636 9.1540003 -0.001 0.53194392 -0.27231273 -0.44878167 0.74734432
24.620001 9.2370005 -0.001 0.52479088 -0.1830871 -0.38806555 0.67787993
24.525 9.2889996 -0.001 0.52862376 -0.21870062 -0.37903881 0.68625319
24.535 9.3809996 -0.001 0.21538855 0.20126009 -0.41899261 0.51230133
21.32 8.2709999 0.026000001 0.13306792 0.072097421 -0.23655199 0.28082371
24.056 8.29 -0.15099999 0.54717839 -0.41286606 -0.36655748 0.77732038
24.01 8.316 -0.15099999 0.54717886 -0.41286397 -0.36655894 0.77732027
24.003 8.3979998 -0.15099999 0.4972291 -0.54007506 -0.38413963 0.82854158
24.033001 8.4940004 -0.152 0.4972291 -0.54007506 -0.38413963 0.82854158
24.607 8.7840004 -0.161 0.012435095 0.23474088 -0.39657015 0.46100521
24.658001 8.8900003 -0.162 0.53199315 -0.27382314 -0.44724357 0.74700916
24.591999 8.9540005 -0.161 0.53135866 -0.27542976 -0.38902086 0.71382129
24.344999 8.9499998 -0.15800001 0.46734005 -0.40149403 -0.62824875 0.87994355
24.469999 9.0839996 -0.16 0.53380948 -0.27494374 -0.4588584 0.75571007
24.629999 9.1870003 -0.163 0.5309186 -0.26691958 -0.46490034 0.75448853
24.631001 9.276 -0.163 0.52215117 -0.16364112 -0.4406299 0.70254892
24.608999 9.3559999 -0.163 0.24629088 0.18629694 -0.46166885 0.55543125
24.339001 9.3409996 -0.16 0.026951842 0.22406086 -0.32640743 0.39682677
21.325001 8.2580004 -0.115 0.11420175 0.072952867 -0.24254343 0.27783355
24.049999 8.2139997 -0.32800001 0.50405151 -0.52781749 -0.41491032 0.83952951
24.059 8.3009996 -0.329 0.55458391 -0.38315463 -0.38702324 0.77727586
24.052999 8.3839998 -0.329 0.53671455 -0.44127226 -0.34096676 0.77397805
24.059 8.4709997 -0.33000001 0.54764205 -0.40726504 -0.35556847 0.76954895
24.113001 8.5319996 -0.331 0.50571001 -0.524979 -0.3920604 0.82768166
24.684999 8.8210001 -0.345 0.45238546 0.0075156987 -0.41674533 0.61513066
24.702999 8.915 -0.34599999 0.53752917 -0.26221034 -0.41060781 0.72545892
24.5 8.9289999 -0.34200001 0.4831278 -0.48246685 -0.39029711 0.78645951
24.357 8.9639997 -0.33899999 0.39683914 0.073297977 -0.36404207 0.54348922
24.646 9.158 -0.34599999 0.52624977 -0.18691714 -0.44348347 0.71313
24.639 9.2440004 -0.347 0.52497649 -0.17698711 -0.41768038 0.69381672
24.67 9.2989998 -0.34799999 0.44962671 0.01178661 -0.42601207 0.61950737
24.622 9.3699999 -0.347 0.26801628 0.17656621 -0.40351307 0.51558816
24.336 9.349 -0.34200001 -0.016169883 0.22937432 -0.4568668 0.51146972
21.372999 8.2910004 -0.27599999 0.1293079 0.072321087 -0.24375154 0.28524673
24.881001 8.1820002 -0.47799999 0.085031889 0.22489744 -0.37481442 0.44530341
24.684 8.2030001 -0.47400001 0.057067133 0.22454408 -0.38420063 0.44865
24.042999 8.3260002 -0.45899999 0.54816586 -0.4129352 -0.38733181 0.7880528
24.054001 8.3719997 -0.45899999 0.54816586 -0.4129352 -0.38733181 0.7880528
24.062 8.46 -0.46000001 0.54816586 -0.4129352 -0.38733181 0.7880528
24.169001 8.5830002 -0.46399999 0.52870059 -0.47364467 -0.38054487 0.8054055
24.702999 8.8610001 -0.47999999 0.53577036 -0.32836652 -0.46680751 0.78280503
24.671 8.9370003 -0.47999999 0.52492797 -0.33552334 -0.47406343 0.78285462
24.459 8.9469995 -0.47400001 0.52051705 -0.35080427 -0.34187919 0.71476084
24.267 8.9630003 -0.47 0.4205277 -0.60090703 -0.31184399 0.79698145
24.653999 9.151 -0.48100001 0.52689755 -0.19441433 -0.39376149 0.68590528
24.674 9.2460003 -0.48199999 0.49829537 -0.11732714 -0.56870127 0.76516992
24.653999 9.3269997 -0.48300001 0.40803561 0.058663785 -0.55267489 0.68948096
24.52 9.3649998 -0.47999999 0.25527257 0.17672458 -0.50124943 0.5896157
24.353001 9.3879995 -0.47600001 0.25547829 0.18594247 -0.39828661 0.50840533
21.349001 8.3039999 -0.39300001 0.11980961 0.069019169 -0.24644674 0.28258446
24.981001 8.184 -0.63700002 0.13855015 0.23564267 -0.38231003 0.46998358
24.833 8.1789999 -0.63200003 0.080391549 0.22543737 -0.38135031 0.45023644
24.57 8.1780005 -0.62400001 0.064151756 0.22826743 -0.39672691 0.46218362
24.028999 8.335 -0.61000001 0.45044413 0.022129118 -0.42836481 0.62200165
24.018 8.4160004 -0.61000001 0.45044413 0.022129118 -0.42836481 0.62200165
24.038 8.4659996 -0.611 0.45044413 0.022129118 -0.42836481 0.62200165
24.664 8.7720003 -0.63300002 0.25808132 0.18105289 -0.44117892 0.54224068
24.666 8.8599997 -0.63499999 0.46032676 -0.31649077 -0.68449497 0.88351595
24.572001 8.9139996 -0.63200003 0.094938196 -0.28152078 0.072522342 0.30582136
24.358 8.9230003 -0.62599999 0.20205817 0.20919466 -0.40388423 0.49770713
24.566 9.0869999 -0.634 0.17311755 -0.4133864 0.032786936 0.44936955
24.645 9.2040005 -0.63800001 0.36946431 -0.099647924 -0.76999629 0.85984176
23.728001 8.9049997 -0.60699999 0.31288612 -0.4846752 -0.006767422 0.57693464
23.645 8.9589996 -0.60500002 0.36633343 -0.010123253 -0.68076575 0.77313948
23.559 9.0109997 -0.60299999 0.36633343 -0.010123253 -0.68076575 0.77313948
21.35 8.2460003 -0.528 0.12353913 0.058908075 -0.27639785 0.30842802
21.197001 8.2629995 -0.52399999 0.11530505 0.0465101 -0.2477098 0.27716166
24.724001 8.2259998 -0.80000001 0.062196426 0.23473313 -0.40271738 0.47026518
24.518999 8.2010002 -0.79299998 0.061676703 0.22856593 -0.40065819 0.46537447
24.278 8.2049999 -0.78399998 0.30550563 0.16589248 -0.3961722 0.52707344
24.073 8.474 -0.77999997 0.29793069 0.16179246 -0.48832166 0.59447247
23.76 8.4469995 -0.76800001 0.016914338 -0.4971301 0.055806994 0.50053859
23.462999 8.3830004 -0.75599998 0.25171679 -0.047930568 -0.79500782 0.83528209
23.493999 8.4779997 -0.759 -0.088768646 -0.4445954 0.050575197 0.45618284
23.563 8.5860004 -0.76300001 -0.095886789 -0.37507954 0.067235887 0.39293715
23.638 8.698 -0.76700002 0.15449297 -0.4071058 0.080763459 0.44286111
23.695999 8.8039999 -0.77100003 0.10815591 -0.41656306 0.084631592 0.43861714
23.709999 8.8940001 -0.77200001 0.31288612 -0.4846752 -0.006767422 0.57693464
23.586 8.9320002 -0.76800001 0.31257814 -0.48473686 -0.0066044033 0.57681757
23.068001 8.7770004 -0.74699998 0.30208009 0.020252436 -0.63444322 0.70297992
22.906 8.7980003 -0.74199998 0.21241958 0.07899031 -0.60714352 0.64806235
21.353001 8.276 -0.67900002 0.12610744 0.058284491 -0.28057685 0.31308711
21.176001 8.2840004 -0.67299998 0.11307729 0.046335876 -0.25045007 0.27867314
24.389 8.1870003 -0.94099998 0.035666667 0.23364353 -0.38736582 0.45377713
24.045 8.4519997 -0.93000001 0.29019189 0.17046034 -0.36881763 0.49929401
23.468 8.3330002 -0.90399998 0.15463844 0.19134033 -0.48423326 0.54314458
23.412001 8.3959999 -0.903 0.24330372 0.15654781 -0.53209054 0.6056602
23.363001 8.4200001 -0.90100002 0.33481917 0.11012575 -0.54271472 0.64712507
23.275999 8.4709997 -0.898 0.33838627 0.068412006 -0.6210416 0.7105478
23.223 8.5349998 -0.89700001 0.33026746 0.041955978 -0.66604948 0.74461991
23.181 8.6020002 -0.89600003 0.33955008 0.031147212 -0.6214577 0.70885408
23.208 8.6949997 -0.89899999 0.30409619 0.032756001 -0.69731271 0.76144105
23.155001 8.7580004 -0.89700001 0.32113713 0.005554229 -0.63731062 0.7136699
22.889999 8.7410002 -0.88599998 0.34571868 0.044951946 -0.56123245 0.66069961
21.385 8.2060003 -0.815 0.12229756 0.060731024 -0.25631684 0.29041913
23.941 8.4390001 -1.071 0.030554477 0.2201148 -0.45190594 0.50359023
23.424 8.3389997 -1.045 0.20580281 0.18150139 -0.47324449 0.54704469
23.334999 8.3900003 -1.0420001 0.33067673 0.1377309 -0.42164809 0.55326664
23.277 8.4099998 -1.039 0.35716984 0.11765131 -0.4583106 0.59284121
23.184999 8.4589996 -1.036 0.38100627 0.1148212 -0.39818376 0.56293869
23.115 8.5159998 -1.033 0.33597744 0.050194293 -0.55249316 0.64857459
23.051001 8.5749998 -1.031 0.35988116 0.017339557 -0.58082116 0.68349713
22.971001 8.6280003 -1.029 0.37640506 0.014050096 -0.5774616 0.68944913
22.92 8.6899996 -1.027 0.3613168 0.026450932 -0.57535768 0.67991614
22.85 8.7460003 -1.025 0.32636601 0.05746913 -0.55926865 0.65007609
23.388 8.3439999 -1.201 0.24873713 0.085973352 -0.11481881 0.28713226
23.51 8.5539999 -1.212 -0.24677463 0.063327938 -0.27576518 0.3754392
23.582001 8.665 -1.2180001 0.092095286 -0.27583265 0.10401434 0.30884328
23.664 8.7370005 -1.223 0.089300618 -0.28183761 0.10086232 0.31237838
23.679001 8.8269997 -1.226 0.091206379 -0.28384292 0.1008209 0.31472251
22.863001 8.6879997 -1.1799999 0.43102556 0.03112042 -0.42837673 0.60848844
22.825001 8.7550001 -1.179 0.43428874 0.028107554 -0.42883518 0.61097986
