# .PCD v0.7 - Point Cloud Data file format
VERSION 0.7
FIELDS x y z normal_x normal_y normal_z curvature
SIZE 4 4 4 4 4 4 4
TYPE F F F F F F F
COUNT 1 1 1 1 1 1 1
WIDTH 138
HEIGHT 1
VIEWPOINT 0 0 0 1 0 0 0
POINTS 138
DATA ascii
2.7249999 23.722 -0.41800001 0.5090431 0.059313815 -0.64311123 0.82233512
2.684 24.033001 -0.426 0.48021719 0.069010392 -0.67585057 0.83195251
2.6960001 24.492001 -0.43799999 0.068817839 0.29266337 -0.87380707 0.92408144
2.49 24.773001 -0.44499999 -0.25331923 0.042462498 0.025465012 0.2581127
2.3 25.273001 -0.45699999 -0.033921689 -0.25718695 -0.057368129 0.26568198
2.256 25.226999 -0.456 -0.29462612 0.0026908275 0.096749723 0.31011659
2.1719999 25.181999 -0.454 -0.29537058 0.0037029721 0.097268671 0.31099626
2.0599999 24.795 -0.44400001 0.06040296 0.33624929 -0.39472419 0.52203381
1.978 24.737 -0.442 0.056701422 0.33432591 -0.33259863 0.47498494
1.934 25.194 -0.454 -0.27180615 -0.19251269 0.06251967 0.33889294
1.757 23.854 -0.419 -0.21839342 -0.32917807 -0.0089941025 0.39513892
1.684 23.891001 -0.41999999 -0.21839342 -0.32917807 -0.0089941025 0.39513892
1.647 23.893999 -0.41999999 -0.15542966 0.43514353 -0.52882469 0.70225626
1.571 23.881001 -0.419 -0.094964772 0.42416942 -0.46999726 0.64018393
1.492 23.832001 -0.41800001 -0.031010866 0.35567144 -0.55409396 0.65915394
1.301 24.483999 -0.435 0.1341826 -0.12368561 -0.1969516 0.26850146
2.72 24.489 -0.58399999 0.34667766 0.14762212 -0.24347633 0.44861835
2.641 24.482 -0.58399999 0.068817668 0.29266286 -0.87380707 0.92408133
2.661 25.033001 -0.60100001 0.44981909 -0.019872585 -0.58662003 0.73949659
2.556 24.782 -0.59299999 -0.16885239 0.28501025 -0.077145219 0.34013724
2.487 24.878 -0.59600002 0.3106432 -0.12143645 -0.53331393 0.62902284
2.3740001 24.528999 -0.58399999 -0.56917191 -0.099073939 0.026952147 0.57835865
2.2219999 24.568001 -0.58499998 -0.36975464 -0.30397901 0.007869184 0.4787313
2.0450001 23.879 -0.56300002 0.11620331 -0.16503739 -0.19177823 0.27842313
1.988 24.091999 -0.56900001 0.14273617 -0.19886765 -0.31600446 0.39972585
1.971 24.837999 -0.59299999 0.14323008 0.15257232 -0.24086368 0.31907442
1.778 23.347 -0.54500002 -0.56187952 0.25011995 -0.063404471 0.61829501
1.699 23.275 -0.54299998 -0.57606554 0.33166215 -0.16359547 0.6845544
1.624 23.254 -0.542 -0.48717105 0.41833004 -0.22156782 0.67928487
1.595 23.917 -0.56300002 -0.066524357 0.40467596 -0.28165653 0.49751234
1.526 24.021999 -0.56599998 -0.42543095 0.3678093 -0.089883685 0.56952107
1.544 24.893999 -0.59399998 0.049373507 -0.22759131 -0.11546716 0.25993887
1.405 23.886999 -0.56199998 0.045193017 0.019505613 -0.72089452 0.72257304
1.3609999 24.445999 -0.579 -0.13702723 -0.31107828 -0.032746583 0.3414945
1.2920001 24.584 -0.58399999 0.11280429 -0.18224426 -0.19018799 0.28654712
2.7550001 24.406 -0.74299997 0.4235124 -0.10757728 -0.55357885 0.70525539
2.6170001 23.851 -0.72100002 0.44813555 0.025098277 -0.57486343 0.72933078
2.553 23.966 -0.72500002 0.39898881 -0.15194075 -0.5485847 0.69514263
2.5350001 25.32 -0.77700001 0.13154066 -0.1913089 -0.24508484 0.33759239
2.2579999 24.478001 -0.74400002 0.097251475 -0.19984101 -0.60852379 0.64783907
2.1889999 24.577999 -0.74699998 0.080270439 0.2447309 -0.59357446 0.64704502
2.082 24.23 -0.73400003 0.11990929 -0.12470134 -0.60836726 0.6324867
1.9529999 23.597 -0.70899999 -0.20357545 0.17176229 0.066073 0.27442828
1.877 23.577 -0.708 -0.51530808 0.28889328 -0.035349995 0.59182042
1.849 23.702 -0.71200001 0.17837727 -0.00055198837 -0.40169072 0.43951586
1.784 23.830999 -0.71700001 -0.41590643 0.45518535 -0.52128613 0.80741012
1.697 23.665001 -0.71100003 0.16450724 0.002587378 -0.28211692 0.32658732
1.526 23.322001 -0.69700003 -0.66423601 0.1518126 -0.099367589 0.68857133
1.5420001 24.795 -0.75400001 0.04216665 -0.2226449 -0.11009803 0.25193325
1.378 23.966 -0.72100002 -0.35882917 0.46624753 -0.24632229 0.63782424
1.317 24.232 -0.73199999 0.17192438 -0.082591802 -0.28640226 0.34410122
1.223 23.879 -0.71799999 -0.66838688 0.31592378 -0.2367633 0.77627683
2.7950001 24.677999 -0.90100002 0.40793821 0.036205485 -0.70118922 0.81202877
2.799 25.421 -0.93400002 0.37470302 0.12134171 -0.22570053 0.4539459
2.6440001 24.735001 -0.903 0.39762685 0.20239566 -0.52854979 0.69169068
2.573 24.806 -0.90600002 0.35480672 0.18415312 -0.60280377 0.72330666
2.5179999 25.042999 -0.91600001 0.1573078 -0.030045282 -0.1955277 0.25274405
2.434 24.995001 -0.91299999 0.18625754 0.062557042 -0.50388736 0.54083979
2.2019999 24.621 -0.89600003 -0.53687108 0.43604961 -0.44310004 0.82140577
2.0039999 24.117001 -0.87300003 0.13391891 0.18872921 -0.33388275 0.40623969
1.938 24.243 -0.87800002 0.048869222 0.29977673 -0.2506963 0.39383107
1.85 24.097 -0.87099999 -0.21803701 0.31875458 -0.73434031 0.82969892
1.791 23.829 -0.85900003 -0.34472507 0.3712458 -0.067404777 0.51107949
1.676 24.34 -0.88200003 -0.17970067 0.26683259 -0.78742564 0.85060632
1.5319999 23.323 -0.83600003 -0.66423601 0.1518126 -0.099367589 0.68857133
1.425 23.992001 -0.86500001 -0.0094566941 0.25525904 -0.10234401 0.27517432
1.362 24.219999 -0.875 0.12046471 -0.19695033 -0.23785333 0.33147457
1.235 23.966999 -0.86400002 0.091458023 -0.29476461 -0.39774814 0.50344247
1.152 23.820999 -0.85699999 -0.5557614 0.4081409 -0.25508767 0.73520023
2.8210001 25.093 -1.064 0.38885698 -0.28900719 -0.4292838 0.64731711
2.6289999 24.063 -1.012 0.4172672 -0.048752379 -0.55304706 0.69451404
2.5940001 24.455 -1.031 0.3150329 0.04620076 -0.82584894 0.88510263
2.5369999 24.662001 -1.041 -0.016114175 -0.2675035 -0.075423509 0.27839988
2.1210001 23.924999 -1.003 0.09338975 0.2488285 -0.32090044 0.41667056
2.05 23.976999 -1.005 -0.1667632 0.39144716 -0.62136507 0.75308394
1.967 23.898001 -1.001 -0.072062641 0.2590481 -0.048867315 0.27328914
1.9069999 24.089001 -1.01 -0.38631621 0.38898352 -0.67626166 0.87056202
1.844 24.271999 -1.0190001 -0.4073264 0.40040317 -0.65954626 0.87248999
1.732 23.774 -0.99299997 -0.21722955 0.40984666 -0.14214878 0.48514867
1.687 23.663 -0.98799998 -0.60425246 0.34070787 -0.17492917 0.71540415
1.622 23.816 -0.995 -0.17787498 0.4122158 -0.16790298 0.47932532
1.54 23.701 -0.98900002 -0.03014496 0.38108826 -0.41561705 0.56468976
1.426 24.329 -1.02 0.18385977 -0.07367643 -0.3574132 0.40862799
2.5599999 23.591 -1.1390001 0.36010635 -0.073232092 -0.37194344 0.52285892
2.5050001 23.780001 -1.149 -0.13522808 -0.22951254 -0.034465849 0.26860851
2.3859999 23.362 -1.125 0.1977673 -0.32155076 -0.41376418 0.56009603
2.3239999 23.479 -1.131 0.14549825 -0.11664403 -0.50107098 0.53464729
2.2739999 23.740999 -1.146 -0.014386326 0.34483206 -0.526205 0.62929153
2.2090001 23.847 -1.151 0.031006753 0.27929145 -0.56508362 0.63109797
2.161 24.143999 -1.168 0.16273147 -0.054893993 -0.28107733 0.3293924
2.1429999 24.374001 -1.181 0.11758327 -0.24868853 -0.33946902 0.43693367
2.0250001 23.902 -1.153 -0.10935177 0.35369664 -0.63445342 0.73456812
1.9630001 24.063 -1.1619999 0.041768998 0.31884992 -0.43127701 0.53796822
1.875 23.922001 -1.154 -0.54759622 0.42871365 -0.43853468 0.82217371
1.812 24.083 -1.163 -0.43533379 0.45244429 -0.24061336 0.67239583
1.732 24.023001 -1.159 -0.11965542 0.40410322 -0.20194143 0.46732983
1.659 24.062 -1.161 -0.043561012 0.30227935 -0.11577156 0.32660899
1.489 24.395 -1.179 0.1482532 0.128443 -0.25553143 0.32213807
2.6949999 25.035999 -1.355 0.36664978 -0.030412067 -0.7718091 0.85501242
2.586 24.752001 -1.337 0.38539869 -0.016033683 -0.36600423 0.53174084
2.586 25.139999 -1.3609999 0.23831727 -0.054196522 -0.74274087 0.78191841
2.3540001 23.594 -1.2640001 0.26551211 0.058293156 -0.48363435 0.55479449
2.049 23.524 -1.258 0.10533002 0.22517042 -0.42690068 0.49400437
2.0109999 23.966 -1.285 -0.095480636 0.41896525 -0.2894482 0.51810104
1.96 23.809999 -1.275 -0.10815166 0.39567548 -0.5572018 0.691903
1.903 24.037001 -1.289 -0.37429476 0.40077844 -0.10597825 0.55852604
1.823 23.981001 -1.285 -0.34501994 0.40880898 -0.114912 0.54714561
1.738 23.856001 -1.277 -0.44031715 0.34124479 -0.050756931 0.55937773
1.651 24.83 -1.337 0.041021168 -0.22597414 -0.111269 0.25520155
1.535 24.226 -1.299 0.025648683 0.2804262 -0.16313797 0.32543924
1.505 24.357 -1.307 0.027054757 0.26613182 -0.14866979 0.30604053
1.4349999 24.486 -1.3150001 0.043069541 0.26745421 -0.16231178 0.3158035
2.438 23.509001 -1.424 0.30181891 0.13920167 -0.58398622 0.67194617
2.526 25.108 -1.534 -0.0026522279 0.32550627 -0.55059403 0.63962114
2.23 23.287001 -1.4069999 0.029753149 0.33410576 -0.34661111 0.48233926
2.191 23.653 -1.432 0.061671108 0.29154074 -0.4347263 0.52705437
2.1800001 24.364 -1.4809999 -0.70308781 0.19113445 -0.13701302 0.74137539
2.1140001 24.486 -1.489 0.082178026 0.03610621 -0.69590592 0.70167083
2.0090001 24.162001 -1.466 -0.56383687 0.32567763 -0.089200795 0.65721738
1.948 24.349001 -1.479 -0.5239259 0.11809342 0.051655054 0.53954858
1.821 24.197001 -1.467 -0.17960276 0.31691495 -0.024338901 0.36508167
1.745 24.201 -1.467 -0.10737647 0.3060725 -0.052975655 0.32865864
1.466 24.649 -1.497 -0.6008845 0.16874748 -0.031685233 0.62493348
1.348 24.622 -1.494 -0.6008845 0.16874748 -0.031685233 0.62493348
2.4189999 23.471001 -1.5369999 0.3016879 0.16018575 -0.39368874 0.52121574
2.348 23.511999 -1.54 0.2082158 0.14999244 -0.34971106 0.43376189
2.1670001 24.421 -1.605 -0.44551244 0.21869516 0.038884699 0.49781615
2.056 24.016001 -1.575 -0.35297903 0.24643114 0.046384871 0.43298274
2.0120001 24.412001 -1.604 -0.323697 0.0049497616 0.10924891 0.34167174
1.852 24.344 -1.598 -0.2955637 -0.0095276292 0.11322677 0.31665277
1.767 24.226999 -1.589 -0.10859008 0.23510127 0.0027007759 0.25898206
1.7 24.943001 -1.641 -0.16246372 0.26402676 0.0060401857 0.31006625
1.625 25.002001 -1.645 -0.020981818 0.37633213 -0.21537055 0.43410897
2.4690001 23.368999 -1.684 0.31716108 0.04457999 -0.31747317 0.45096314
2.3989999 23.408001 -1.687 0.30773306 0.044971503 -0.31430352 0.44216374
2.3180001 23.346001 -1.681 0.214261 0.034778178 -0.2703259 0.34668916
2.471 23.507 -1.831 0.18280074 0.35158646 -0.4951973 0.63423145
2.3150001 23.441 -1.824 0.085736096 0.34907681 -0.4501054 0.57602096
