# .PCD v0.7 - Point Cloud Data file format
VERSION 0.7
FIELDS x y z normal_x normal_y normal_z curvature
SIZE 4 4 4 4 4 4 4
TYPE F F F F F F F
COUNT 1 1 1 1 1 1 1
WIDTH 67
HEIGHT 1
VIEWPOINT 0 0 0 1 0 0 0
POINTS 67
DATA ascii
-48.556 -4.355 1.319 0.22763327 0.062449723 -0.50102466 0.55384344
-48.994999 -3.1459999 0.95499998 0.006118367 -0.43196729 0.24698597 0.49762961
-49.071999 -3.2279999 0.95599997 -0.017996101 -0.40520218 0.20687553 0.45531324
-48.816002 -3.365 0.95200002 0.0045367656 -0.41294217 0.21913853 0.46750778
-48.820999 -3.52 0.95200002 0.0029236544 -0.41385713 0.22068489 0.46902889
-48.827999 -3.674 0.95300001 0.0037614182 -0.41410965 0.22067013 0.46925074
-48.735001 -3.8210001 0.95099998 0.0047930325 -0.41294807 0.21913803 0.46751532
-48.888 -3.9879999 0.954 0.00375919 -0.38275853 0.17886499 0.4225055
-48.752998 -4.131 0.95200002 0.32681113 -0.28174067 -0.052711546 0.43469739
-48.693001 -4.2030001 0.95099998 0.34530479 -0.1999933 -0.099790782 0.41132823
-48.683998 -4.3559999 0.95099998 0.36293769 -0.067608654 -0.30877566 0.48128691
-48.529999 -4.4970002 0.949 0.31960306 0.018814251 -0.38104987 0.49769378
-48.542999 -4.1880002 0.69999999 0.38900626 -0.1180899 -0.26139703 0.48332131
-48.571999 -4.3439999 0.69999999 0.40232262 -0.13154534 -0.27766797 0.50622839
-48.458 -4.4879999 0.699 0.34958029 -0.069021121 -0.34259492 0.49430919
-48.861 -2.8 0.361 0.32053506 -0.10527879 -0.27309018 0.43405598
-48.682999 -2.8670001 0.361 0.30574095 -0.093195409 -0.29118621 0.43237984
-48.758999 -3.0250001 0.361 0.37228444 -0.21214077 -0.43213204 0.60855365
-48.506001 -3.1619999 0.36000001 0.3742151 -0.33253783 -0.0024196208 0.50062382
-48.557999 -3.319 0.36000001 0.35898408 -0.28779912 0.00049972534 0.46010667
-48.603001 -3.4760001 0.36000001 0.38553303 -0.41188782 -0.48873162 0.74642205
-48.207001 -3.5999999 0.359 -0.22004348 -0.1293084 0.12729284 0.28520739
-48.506001 -3.7750001 0.36000001 -0.20470873 -0.41010076 0.20168746 0.50076556
-48.457001 -3.848 0.36000001 -0.26890907 -0.58278304 0.15982094 0.66143095
-48.342999 -3.9920001 0.36000001 0.42143112 -0.26348174 -0.15405688 0.52034634
-48.278 -4.1389999 0.36000001 0.27155086 -0.43684548 0.1558636 0.53746378
-48.598999 -4.3200002 0.361 0.25172669 -0.27770147 -0.34224796 0.50756091
-48.501999 -4.4650002 0.36000001 0.17291702 -0.39653072 -0.41366333 0.59854341
-48.645 -4.6329999 0.361 0.16989936 -0.28180972 -0.37210667 0.49673522
-48.771 -2.9560001 0.131 0.40448031 -0.29742616 -0.060174584 0.50565565
-48.637001 -3.0250001 0.131 0.37400883 -0.22767839 -0.060880616 0.44207069
-48.443001 -3.165 0.131 0.30010405 -0.16508472 -0.018742248 0.34302577
-48.683998 -3.335 0.131 0.37767953 -0.33541247 -0.51067227 0.71828234
-48.422001 -3.47 0.131 0.41371134 -0.29622141 -0.15187185 0.53100777
-48.681999 -3.642 0.131 0.47684425 -0.3421573 -0.40965253 0.71572846
-48.293999 -3.7650001 0.131 0.43008691 -0.4554027 -0.10626328 0.63534105
-48.522999 -3.937 0.131 0.39508477 -0.1558933 -0.35324702 0.55242932
-48.248001 -3.9909999 0.131 0.43991074 -0.34587196 -0.23311406 0.60621041
-48.382 -4.1550002 0.131 0.45494375 -0.49454096 -0.22664259 0.70916247
-48.243999 -4.296 0.131 0.42095277 -0.62559229 -0.21643794 0.78448218
-48.479 -4.4699998 0.131 0.21440226 -0.34532687 -0.37992829 0.55638516
-48.769001 -4.652 0.131 -0.46964186 0.44944823 -0.35066271 0.73860103
-48.488998 -2.914 -0.177 0.27396333 -0.030149609 -0.2398358 0.36535752
-48.557999 -3.0710001 -0.178 0.24523529 -0.028899789 -0.18467464 0.30835089
-48.409 -3.138 -0.177 0.37362203 -0.15154549 -0.24136889 0.46991318
-48.230999 -3.279 -0.175 0.39665431 -0.25118691 -0.16454607 0.49749866
-48.368999 -3.441 -0.176 0.41344595 -0.27957064 -0.14564168 0.5199123
-48.415001 -3.5969999 -0.177 0.44000995 -0.38679209 -0.16485763 0.6086008
-48.089001 -3.7249999 -0.17399999 0.3917146 -0.26166159 -0.10044165 0.48165926
-48.326 -3.8959999 -0.176 0.42252421 -0.51560706 -0.10093556 0.6742146
-48.502998 -4.0630002 -0.178 0.48658419 -0.4286772 -0.11487446 0.65857762
-48.435001 -4.1339998 -0.177 0.44536808 -0.35531178 -0.16931376 0.59436214
-48.287998 -4.2750001 -0.176 0.4453114 -0.39971757 -0.1396116 0.61446548
-48.438 -4.441 -0.178 0.28379679 0.19370556 -0.36618823 0.50215167
-48.685001 -2.8770001 -0.47799999 0.45887753 -0.49108237 -0.31968391 0.74426359
-48.568001 -3.0239999 -0.477 0.39396077 -0.16960554 -0.28084013 0.51268148
-48.380001 -3.3169999 -0.47400001 0.29836425 -0.12661508 -0.51599216 0.60934436
-48.144001 -3.529 -0.47099999 0.38518256 -0.20957614 -0.41887775 0.60642093
-48.311001 -3.694 -0.47400001 0.35964221 -0.24666119 -0.04417491 0.43833283
-48.140999 -3.8329999 -0.47099999 0.44002426 -0.51971781 -0.25727105 0.72795355
-48.231998 -4.145 -0.47299999 0.38305882 -0.52582532 -0.022910848 0.65096176
-48.222 -4.2969999 -0.47299999 0.41376474 -0.51055413 -0.054760784 0.65944338
-48.327 -4.3829999 -0.47499999 0.29081297 -0.28560975 -0.39726985 0.56918228
-48.540001 -2.8399999 -0.81400001 0.26022917 -0.056642592 -0.10260348 0.28540337
-48.423 -3.444 -0.81300002 0.083409429 0.016049922 -0.52362084 0.53046536
-48.459 -3.523 -0.81400001 -0.44577187 -0.2443025 -0.022946715 0.50884461
-48.622002 -3.5610001 -1.067 0.32679597 -0.22757353 -0.53360593 0.66582328
